5.210582 5.251408 5.291989 5.332323 5.372413 5.412259 5.451866 5.491234 5.530367 5.569269 5.607944 5.646395 5.684627 5.722645 5.760454 5.798059 5.835465 5.872678 5.909704 5.946547 5.983214 6.019711 6.056043 6.092217 6.128238 6.164112 6.199845 6.235442 6.270910 6.306253 6.341478 6.376589 6.411592 6.446493 6.481295 6.516004 6.550625 6.585162 6.619620 6.654002 6.688314 6.722559 6.756740 6.790862 6.824929 6.858942 6.892906 6.926824 6.960699 6.994533 7.028329 7.062089 7.095816 7.129513 7.163181 7.196822 7.230438 7.264031 7.297603 7.331154 7.364688 7.398205 7.431706 7.465192 7.498665 7.532126 7.565576 7.599015 7.632444 7.665865 7.699278 7.732683 7.766082 7.799475 7.832862 7.866243 7.899620 7.932993 7.966362 7.999728 8.033090 8.066449 8.099806 8.133160 8.166513 8.199863 8.233211 8.266558 8.299904 8.333248 8.366591 8.399933 8.433274 8.466614 8.499954 8.533292 8.566631 8.599968 8.633305 8.666642 8.699978 8.733314 8.766650 8.799985 8.833320 8.866655 8.899990 8.933325 8.966659 8.999993 9.033328 9.066662 9.099996 9.133330 9.166663 9.199997 9.233331 9.266665 9.299998 9.333332 9.366665 9.399999 9.433332 9.466666 9.499999 9.533333 9.566666 9.599999 9.633333 9.666666 9.700000 9.733333 9.766666 9.800000 9.833333 9.866666 9.900000 9.933333 9.966667 10.000000 10.033333 10.066667 10.100000 10.133333 10.166667 10.200000 10.233333 10.266667 10.300000 10.333333 10.366667 10.400000 10.433333 10.466667 10.500000 10.533333 10.566667 10.600000 10.633333 10.666667 10.700000 10.733333 10.766667 10.800000 10.833333 10.866667 10.900000 10.933333 10.966667 11.000000 11.033333 11.066667 11.100000 11.133333 11.166667 11.200000 11.233333 11.266667 11.300000 11.333333 11.366667 11.400000 11.433333 11.466667 11.500000 11.533333 11.566667 11.600000 11.633333 11.666667 11.700000 11.733333 11.766667 11.800000 11.833333 11.866667 11.900000 11.933333 11.966667 12.000000 12.033333 12.066667 12.100000 12.133333 12.166667 12.200000 12.233333 12.266667 12.300000 12.333333 12.366667 12.400000 12.433333 12.466667 12.500000 12.533333 12.566667 12.600000 12.633333 12.666667 12.700000 12.733333 12.766667 12.800000 12.833333 12.866667 12.900000 12.933333 12.966667 13.000000 13.000000 13.000000 13.000000 13.000000 13.000000 13.000000 13.000000 13.000000 13.000000 13.000000 13.000000 13.000000 13.000000 13.000000 13.000000 13.000000 13.000000 13.000000 13.000000 13.000000 13.000000 13.000000 13.000000 13.000000 13.000000 13.000000 13.000000 13.000000 13.000000 13.000000 13.000000 13.000000 13.000000 13.000000 13.000000 13.000000 13.000000 13.000000 13.000000 13.000000 13.000000 13.000000 13.000000 13.000000 13.000000 13.000000 13.000000 13.000000 13.000000 13.000000 13.000000 13.000000 13.000000 13.000000 13.000000 13.000000 13.000000 13.000000 13.000000 13.000000 13.000000 13.000000 13.000000 13.000000 13.000000 13.000000 13.000000 13.000000 13.000000 13.000000 13.000000 13.000000 13.000000 13.000000 13.000000 13.000000 13.000000 13.000000 13.000000 13.000000 13.000000 13.000000 13.000000 13.000000 13.000000 13.000000 13.000000
5.223093 5.263319 5.303319 5.343092 5.382640 5.421964 5.461068 5.499952 5.538621 5.577076 5.615323 5.653364 5.691203 5.728846 5.766296 5.803559 5.840638 5.877540 5.914270 5.950832 5.987232 6.023475 6.059567 6.095513 6.131318 6.166989 6.202529 6.237945 6.273242 6.308424 6.343497 6.378466 6.413335 6.448110 6.482794 6.517393 6.551911 6.586351 6.620719 6.655017 6.689251 6.723422 6.757536 6.791595 6.825602 6.859561 6.893475 6.927346 6.961177 6.994971 7.028730 7.062456 7.096152 7.129819 7.163460 7.197076 7.230670 7.264242 7.297795 7.331329 7.364847 7.398349 7.431836 7.465310 7.498772 7.532223 7.565663 7.599094 7.632516 7.665929 7.699336 7.732735 7.766129 7.799517 7.832899 7.866277 7.899651 7.933021 7.966387 7.999750 8.033110 8.066467 8.099822 8.133174 8.166525 8.199874 8.233221 8.266567 8.299912 8.333255 8.366597 8.399938 8.433279 8.466618 8.499957 8.533296 8.566633 8.599971 8.633308 8.666644 8.699980 8.733316 8.766651 8.799986 8.833322 8.866656 8.899991 8.933325 8.966660 8.999994 9.033328 9.066662 9.099996 9.133330 9.166664 9.199997 9.233331 9.266665 9.299998 9.333332 9.366665 9.399999 9.433332 9.466666 9.499999 9.533333 9.566666 9.600000 9.633333 9.666666 9.700000 9.733333 9.766666 9.800000 9.833333 9.866666 9.900000 9.933333 9.966667 10.000000 10.033333 10.066667 10.100000 10.133333 10.166667 10.200000 10.233333 10.266667 10.300000 10.333333 10.366667 10.400000 10.433333 10.466667 10.500000 10.533333 10.566667 10.600000 10.633333 10.666667 10.700000 10.733333 10.766667 10.800000 10.833333 10.866667 10.900000 10.933333 10.966667 11.000000 11.033333 11.066667 11.100000 11.133333 11.166667 11.200000 11.233333 11.266667 11.300000 11.333333 11.366667 11.400000 11.433333 11.466667 11.500000 11.533333 11.566667 11.600000 11.633333 11.666667 11.700000 11.733333 11.766667 11.800000 11.833333 11.866667 11.900000 11.933333 11.966667 12.000000 12.033333 12.066667 12.100000 12.133333 12.166667 12.200000 12.233333 12.266667 12.300000 12.333333 12.366667 12.400000 12.433333 12.466667 12.500000 12.533333 12.566667 12.600000 12.633333 12.666667 12.700000 12.733333 12.766667 12.800000 12.833333 12.866667 12.900000 12.933333 12.966667 13.000000 13.000000 13.000000 13.000000 13.000000 13.000000 13.000000 13.000000 13.000000 13.000000 13.000000 13.000000 13.000000 13.000000 13.000000 13.000000 13.000000 13.000000 13.000000 13.000000 13.000000 13.000000 13.000000 13.000000 13.000000 13.000000 13.000000 13.000000 13.000000 13.000000 13.000000 13.000000 13.000000 13.000000 13.000000 13.000000 13.000000 13.000000 13.000000 13.000000 13.000000 13.000000 13.000000 13.000000 13.000000 13.000000 13.000000 13.000000 13.000000 13.000000 13.000000 13.000000 13.000000 13.000000 13.000000 13.000000 13.000000 13.000000 13.000000 13.000000 13.000000 13.000000 13.000000 13.000000 13.000000 13.000000 13.000000 13.000000 13.000000 13.000000 13.000000 13.000000 13.000000 13.000000 13.000000 13.000000 13.000000 13.000000 13.000000 13.000000 13.000000 13.000000 13.000000 13.000000 13.000000 13.000000 13.000000 13.000000
5.234519 5.274196 5.313665 5.352926 5.391979 5.430827 5.469471 5.507914 5.546158 5.584206 5.622061 5.659728 5.697209 5.734508 5.771631 5.808581 5.845362 5.881980 5.918439 5.954745 5.990901 6.026912 6.062785 6.098523 6.134131 6.169616 6.204981 6.240231 6.275371 6.310406 6.345341 6.380179 6.414926 6.449586 6.484163 6.518662 6.553085 6.587437 6.621723 6.655944 6.690106 6.724211 6.758263 6.792264 6.826218 6.860127 6.893994 6.927822 6.961614 6.995371 7.029096 7.062791 7.096458 7.130099 7.163715 7.197309 7.230882 7.264435 7.297970 7.331489 7.364992 7.398480 7.431955 7.465418 7.498870 7.532311 7.565743 7.599166 7.632581 7.665988 7.699389 7.732783 7.766172 7.799555 7.832934 7.866308 7.899679 7.933045 7.966409 7.999770 8.033127 8.066483 8.099836 8.133187 8.166536 8.199884 8.233230 8.266575 8.299919 8.333261 8.366603 8.399943 8.433283 8.466622 8.499961 8.533299 8.566636 8.599973 8.633310 8.666646 8.699982 8.733317 8.766652 8.799988 8.833322 8.866657 8.899992 8.933326 8.966660 8.999994 9.033328 9.066662 9.099996 9.133330 9.166664 9.199998 9.233331 9.266665 9.299998 9.333332 9.366665 9.399999 9.433332 9.466666 9.499999 9.533333 9.566666 9.600000 9.633333 9.666666 9.700000 9.733333 9.766666 9.800000 9.833333 9.866666 9.900000 9.933333 9.966667 10.000000 10.033333 10.066667 10.100000 10.133333 10.166667 10.200000 10.233333 10.266667 10.300000 10.333333 10.366667 10.400000 10.433333 10.466667 10.500000 10.533333 10.566667 10.600000 10.633333 10.666667 10.700000 10.733333 10.766667 10.800000 10.833333 10.866667 10.900000 10.933333 10.966667 11.000000 11.033333 11.066667 11.100000 11.133333 11.166667 11.200000 11.233333 11.266667 11.300000 11.333333 11.366667 11.400000 11.433333 11.466667 11.500000 11.533333 11.566667 11.600000 11.633333 11.666667 11.700000 11.733333 11.766667 11.800000 11.833333 11.866667 11.900000 11.933333 11.966667 12.000000 12.033333 12.066667 12.100000 12.133333 12.166667 12.200000 12.233333 12.266667 12.300000 12.333333 12.366667 12.400000 12.433333 12.466667 12.500000 12.533333 12.566667 12.600000 12.633333 12.666667 12.700000 12.733333 12.766667 12.800000 12.833333 12.866667 12.900000 12.933333 12.966667 13.000000 13.000000 13.000000 13.000000 13.000000 13.000000 13.000000 13.000000 13.000000 13.000000 13.000000 13.000000 13.000000 13.000000 13.000000 13.000000 13.000000 13.000000 13.000000 13.000000 13.000000 13.000000 13.000000 13.000000 13.000000 13.000000 13.000000 13.000000 13.000000 13.000000 13.000000 13.000000 13.000000 13.000000 13.000000 13.000000 13.000000 13.000000 13.000000 13.000000 13.000000 13.000000 13.000000 13.000000 13.000000 13.000000 13.000000 13.000000 13.000000 13.000000 13.000000 13.000000 13.000000 13.000000 13.000000 13.000000 13.000000 13.000000 13.000000 13.000000 13.000000 13.000000 13.000000 13.000000 13.000000 13.000000 13.000000 13.000000 13.000000 13.000000 13.000000 13.000000 13.000000 13.000000 13.000000 13.000000 13.000000 13.000000 13.000000 13.000000 13.000000 13.000000 13.000000 13.000000 13.000000 13.000000 13.000000 13.000000
5.244719 5.283907 5.322902 5.361705 5.400317 5.438739 5.476973 5.515022 5.552887 5.590571 5.628077 5.665409 5.702570 5.739563 5.776394 5.813064 5.849580 5.885944 5.922162 5.958238 5.994176 6.029981 6.065657 6.101210 6.136643 6.171961 6.207169 6.242271 6.277272 6.312176 6.346987 6.381709 6.416347 6.450905 6.485386 6.519794 6.554133 6.588407 6.622619 6.656772 6.690870 6.724915 6.758911 6.792861 6.826767 6.860632 6.894458 6.928248 6.962004 6.995728 7.029423 7.063090 7.096731 7.130348 7.163943 7.197517 7.231071 7.264607 7.298127 7.331631 7.365121 7.398597 7.432062 7.465515 7.498957 7.532390 7.565814 7.599230 7.632639 7.666040 7.699436 7.732826 7.766210 7.799590 7.832965 7.866336 7.899703 7.933068 7.966429 7.999787 8.033143 8.066497 8.099849 8.133198 8.166546 8.199893 8.233238 8.266582 8.299925 8.333267 8.366608 8.399948 8.433287 8.466626 8.499964 8.533301 8.566638 8.599975 8.633311 8.666647 8.699983 8.733318 8.766654 8.799988 8.833323 8.866658 8.899992 8.933327 8.966661 8.999995 9.033329 9.066663 9.099997 9.133330 9.166664 9.199998 9.233331 9.266665 9.299999 9.333332 9.366666 9.399999 9.433333 9.466666 9.499999 9.533333 9.566666 9.600000 9.633333 9.666666 9.700000 9.733333 9.766666 9.800000 9.833333 9.866667 9.900000 9.933333 9.966667 10.000000 10.033333 10.066667 10.100000 10.133333 10.166667 10.200000 10.233333 10.266667 10.300000 10.333333 10.366667 10.400000 10.433333 10.466667 10.500000 10.533333 10.566667 10.600000 10.633333 10.666667 10.700000 10.733333 10.766667 10.800000 10.833333 10.866667 10.900000 10.933333 10.966667 11.000000 11.033333 11.066667 11.100000 11.133333 11.166667 11.200000 11.233333 11.266667 11.300000 11.333333 11.366667 11.400000 11.433333 11.466667 11.500000 11.533333 11.566667 11.600000 11.633333 11.666667 11.700000 11.733333 11.766667 11.800000 11.833333 11.866667 11.900000 11.933333 11.966667 12.000000 12.033333 12.066667 12.100000 12.133333 12.166667 12.200000 12.233333 12.266667 12.300000 12.333333 12.366667 12.400000 12.433333 12.466667 12.500000 12.533333 12.566667 12.600000 12.633333 12.666667 12.700000 12.733333 12.766667 12.800000 12.833333 12.866667 12.900000 12.933333 12.966667 13.000000 13.000000 13.000000 13.000000 13.000000 13.000000 13.000000 13.000000 13.000000 13.000000 13.000000 13.000000 13.000000 13.000000 13.000000 13.000000 13.000000 13.000000 13.000000 13.000000 13.000000 13.000000 13.000000 13.000000 13.000000 13.000000 13.000000 13.000000 13.000000 13.000000 13.000000 13.000000 13.000000 13.000000 13.000000 13.000000 13.000000 13.000000 13.000000 13.000000 13.000000 13.000000 13.000000 13.000000 13.000000 13.000000 13.000000 13.000000 13.000000 13.000000 13.000000 13.000000 13.000000 13.000000 13.000000 13.000000 13.000000 13.000000 13.000000 13.000000 13.000000 13.000000 13.000000 13.000000 13.000000 13.000000 13.000000 13.000000 13.000000 13.000000 13.000000 13.000000 13.000000 13.000000 13.000000 13.000000 13.000000 13.000000 13.000000 13.000000 13.000000 13.000000 13.000000 13.000000 13.000000 13.000000 13.000000 13.000000
5.253573 5.292336 5.330920 5.369326 5.407555 5.445608 5.483486 5.521192 5.558728 5.596096 5.633299 5.670341 5.707224 5.743952 5.780528 5.816956 5.853241 5.889385 5.925393 5.961270 5.997019 6.032644 6.068151 6.103542 6.138823 6.173997 6.209069 6.244043 6.278922 6.313712 6.348416 6.383037 6.417581 6.452049 6.486447 6.520777 6.555043 6.589249 6.623397 6.657490 6.691533 6.725526 6.759474 6.793379 6.827244 6.861070 6.894860 6.928617 6.962342 6.996039 7.029707 7.063350 7.096969 7.130565 7.164141 7.197697 7.231235 7.264757 7.298263 7.331755 7.365233 7.398699 7.432154 7.465598 7.499033 7.532459 7.565876 7.599286 7.632689 7.666086 7.699477 7.732862 7.766243 7.799619 7.832991 7.866360 7.899725 7.933087 7.966446 7.999803 8.033157 8.066509 8.099860 8.133208 8.166555 8.199901 8.233245 8.266588 8.299930 8.333272 8.366612 8.399951 8.433290 8.466629 8.499966 8.533304 8.566641 8.599977 8.633313 8.666649 8.699984 8.733320 8.766654 8.799989 8.833324 8.866659 8.899993 8.933327 8.966661 8.999995 9.033329 9.066663 9.099997 9.133331 9.166664 9.199998 9.233332 9.266665 9.299999 9.333332 9.366666 9.399999 9.433333 9.466666 9.499999 9.533333 9.566666 9.600000 9.633333 9.666666 9.700000 9.733333 9.766666 9.800000 9.833333 9.866667 9.900000 9.933333 9.966667 10.000000 10.033333 10.066667 10.100000 10.133333 10.166667 10.200000 10.233333 10.266667 10.300000 10.333333 10.366667 10.400000 10.433333 10.466667 10.500000 10.533333 10.566667 10.600000 10.633333 10.666667 10.700000 10.733333 10.766667 10.800000 10.833333 10.866667 10.900000 10.933333 10.966667 11.000000 11.033333 11.066667 11.100000 11.133333 11.166667 11.200000 11.233333 11.266667 11.300000 11.333333 11.366667 11.400000 11.433333 11.466667 11.500000 11.533333 11.566667 11.600000 11.633333 11.666667 11.700000 11.733333 11.766667 11.800000 11.833333 11.866667 11.900000 11.933333 11.966667 12.000000 12.033333 12.066667 12.100000 12.133333 12.166667 12.200000 12.233333 12.266667 12.300000 12.333333 12.366667 12.400000 12.433333 12.466667 12.500000 12.533333 12.566667 12.600000 12.633333 12.666667 12.700000 12.733333 12.766667 12.800000 12.833333 12.866667 12.900000 12.933333 12.966667 13.000000 13.000000 13.000000 13.000000 13.000000 13.000000 13.000000 13.000000 13.000000 13.000000 13.000000 13.000000 13.000000 13.000000 13.000000 13.000000 13.000000 13.000000 13.000000 13.000000 13.000000 13.000000 13.000000 13.000000 13.000000 13.000000 13.000000 13.000000 13.000000 13.000000 13.000000 13.000000 13.000000 13.000000 13.000000 13.000000 13.000000 13.000000 13.000000 13.000000 13.000000 13.000000 13.000000 13.000000 13.000000 13.000000 13.000000 13.000000 13.000000 13.000000 13.000000 13.000000 13.000000 13.000000 13.000000 13.000000 13.000000 13.000000 13.000000 13.000000 13.000000 13.000000 13.000000 13.000000 13.000000 13.000000 13.000000 13.000000 13.000000 13.000000 13.000000 13.000000 13.000000 13.000000 13.000000 13.000000 13.000000 13.000000 13.000000 13.000000 13.000000 13.000000 13.000000 13.000000 13.000000 13.000000 13.000000 13.000000
5.260981 5.299388 5.337629 5.375702 5.413610 5.451354 5.488935 5.526354 5.563615 5.600719 5.637669 5.674467 5.711118 5.747623 5.783987 5.820212 5.856304 5.892264 5.928097 5.963807 5.999398 6.034873 6.070237 6.105494 6.140647 6.175700 6.210658 6.245525 6.280303 6.314997 6.349611 6.384148 6.418612 6.453007 6.487335 6.521600 6.555805 6.589953 6.624048 6.658092 6.692087 6.726038 6.759945 6.793813 6.827642 6.861436 6.895197 6.928926 6.962626 6.996298 7.029945 7.063567 7.097167 7.130746 7.164306 7.197848 7.231373 7.264882 7.298377 7.331858 7.365327 7.398784 7.432231 7.465668 7.499096 7.532516 7.565928 7.599333 7.632731 7.666124 7.699511 7.732893 7.766271 7.799644 7.833014 7.866380 7.899743 7.933103 7.966461 7.999816 8.033169 8.066520 8.099869 8.133216 8.166562 8.199907 8.233251 8.266593 8.299935 8.333276 8.366615 8.399955 8.433293 8.466631 8.499969 8.533306 8.566642 8.599978 8.633314 8.666650 8.699985 8.733320 8.766655 8.799990 8.833325 8.866659 8.899993 8.933328 8.966662 8.999996 9.033329 9.066663 9.099997 9.133331 9.166664 9.199998 9.233332 9.266665 9.299999 9.333332 9.366666 9.399999 9.433333 9.466666 9.499999 9.533333 9.566666 9.600000 9.633333 9.666666 9.700000 9.733333 9.766666 9.800000 9.833333 9.866667 9.900000 9.933333 9.966667 10.000000 10.033333 10.066667 10.100000 10.133333 10.166667 10.200000 10.233333 10.266667 10.300000 10.333333 10.366667 10.400000 10.433333 10.466667 10.500000 10.533333 10.566667 10.600000 10.633333 10.666667 10.700000 10.733333 10.766667 10.800000 10.833333 10.866667 10.900000 10.933333 10.966667 11.000000 11.033333 11.066667 11.100000 11.133333 11.166667 11.200000 11.233333 11.266667 11.300000 11.333333 11.366667 11.400000 11.433333 11.466667 11.500000 11.533333 11.566667 11.600000 11.633333 11.666667 11.700000 11.733333 11.766667 11.800000 11.833333 11.866667 11.900000 11.933333 11.966667 12.000000 12.033333 12.066667 12.100000 12.133333 12.166667 12.200000 12.233333 12.266667 12.300000 12.333333 12.366667 12.400000 12.433333 12.466667 12.500000 12.533333 12.566667 12.600000 12.633333 12.666667 12.700000 12.733333 12.766667 12.800000 12.833333 12.866667 12.900000 12.933333 12.966667 13.000000 13.000000 13.000000 13.000000 13.000000 13.000000 13.000000 13.000000 13.000000 13.000000 13.000000 13.000000 13.000000 13.000000 13.000000 13.000000 13.000000 13.000000 13.000000 13.000000 13.000000 13.000000 13.000000 13.000000 13.000000 13.000000 13.000000 13.000000 13.000000 13.000000 13.000000 13.000000 13.000000 13.000000 13.000000 13.000000 13.000000 13.000000 13.000000 13.000000 13.000000 13.000000 13.000000 13.000000 13.000000 13.000000 13.000000 13.000000 13.000000 13.000000 13.000000 13.000000 13.000000 13.000000 13.000000 13.000000 13.000000 13.000000 13.000000 13.000000 13.000000 13.000000 13.000000 13.000000 13.000000 13.000000 13.000000 13.000000 13.000000 13.000000 13.000000 13.000000 13.000000 13.000000 13.000000 13.000000 13.000000 13.000000 13.000000 13.000000 13.000000 13.000000 13.000000 13.000000 13.000000 13.000000 13.000000 13.000000
5.266862 5.304987 5.342954 5.380764 5.418417 5.455915 5.493260 5.530452 5.567494 5.604388 5.641137 5.677743 5.714208 5.750537 5.786733 5.822797 5.858735 5.894549 5.930243 5.965821 6.001286 6.036642 6.071893 6.107043 6.142094 6.177052 6.211920 6.246701 6.281399 6.316018 6.350560 6.385030 6.419432 6.453767 6.488039 6.522253 6.556409 6.590512 6.624564 6.658569 6.692528 6.726444 6.760319 6.794157 6.827959 6.861727 6.895464 6.929171 6.962851 6.996504 7.030133 7.063740 7.097325 7.130890 7.164438 7.197968 7.231482 7.264981 7.298467 7.331940 7.365401 7.398852 7.432292 7.465724 7.499147 7.532561 7.565969 7.599370 7.632765 7.666154 7.699538 7.732918 7.766293 7.799664 7.833032 7.866396 7.899757 7.933116 7.966472 7.999826 8.033178 8.066528 8.099876 8.133223 8.166568 8.199912 8.233255 8.266597 8.299939 8.333279 8.366618 8.399957 8.433295 8.466633 8.499970 8.533307 8.566644 8.599980 8.633315 8.666651 8.699986 8.733321 8.766656 8.799991 8.833325 8.866659 8.899994 8.933328 8.966662 8.999996 9.033330 9.066663 9.099997 9.133331 9.166665 9.199998 9.233332 9.266665 9.299999 9.333332 9.366666 9.399999 9.433333 9.466666 9.499999 9.533333 9.566666 9.600000 9.633333 9.666666 9.700000 9.733333 9.766666 9.800000 9.833333 9.866667 9.900000 9.933333 9.966667 10.000000 10.033333 10.066667 10.100000 10.133333 10.166667 10.200000 10.233333 10.266667 10.300000 10.333333 10.366667 10.400000 10.433333 10.466667 10.500000 10.533333 10.566667 10.600000 10.633333 10.666667 10.700000 10.733333 10.766667 10.800000 10.833333 10.866667 10.900000 10.933333 10.966667 11.000000 11.033333 11.066667 11.100000 11.133333 11.166667 11.200000 11.233333 11.266667 11.300000 11.333333 11.366667 11.400000 11.433333 11.466667 11.500000 11.533333 11.566667 11.600000 11.633333 11.666667 11.700000 11.733333 11.766667 11.800000 11.833333 11.866667 11.900000 11.933333 11.966667 12.000000 12.033333 12.066667 12.100000 12.133333 12.166667 12.200000 12.233333 12.266667 12.300000 12.333333 12.366667 12.400000 12.433333 12.466667 12.500000 12.533333 12.566667 12.600000 12.633333 12.666667 12.700000 12.733333 12.766667 12.800000 12.833333 12.866667 12.900000 12.933333 12.966667 13.000000 13.000000 13.000000 13.000000 13.000000 13.000000 13.000000 13.000000 13.000000 13.000000 13.000000 13.000000 13.000000 13.000000 13.000000 13.000000 13.000000 13.000000 13.000000 13.000000 13.000000 13.000000 13.000000 13.000000 13.000000 13.000000 13.000000 13.000000 13.000000 13.000000 13.000000 13.000000 13.000000 13.000000 13.000000 13.000000 13.000000 13.000000 13.000000 13.000000 13.000000 13.000000 13.000000 13.000000 13.000000 13.000000 13.000000 13.000000 13.000000 13.000000 13.000000 13.000000 13.000000 13.000000 13.000000 13.000000 13.000000 13.000000 13.000000 13.000000 13.000000 13.000000 13.000000 13.000000 13.000000 13.000000 13.000000 13.000000 13.000000 13.000000 13.000000 13.000000 13.000000 13.000000 13.000000 13.000000 13.000000 13.000000 13.000000 13.000000 13.000000 13.000000 13.000000 13.000000 13.000000 13.000000 13.000000 13.000000
5.271152 5.309071 5.346839 5.384456 5.421924 5.459243 5.496415 5.533441 5.570324 5.607065 5.643667 5.680132 5.716463 5.752663 5.788736 5.824683 5.860509 5.896216 5.931809 5.967290 6.002663 6.037933 6.073101 6.108173 6.143151 6.178039 6.212840 6.247559 6.282198 6.316762 6.351253 6.385674 6.420029 6.454321 6.488554 6.522729 6.556850 6.590920 6.624941 6.658917 6.692849 6.726740 6.760592 6.794408 6.828190 6.861940 6.895659 6.929350 6.963015 6.996654 7.030271 7.063865 7.097440 7.130995 7.164533 7.198055 7.231561 7.265054 7.298533 7.332000 7.365456 7.398901 7.432337 7.465764 7.499183 7.532594 7.565999 7.599397 7.632789 7.666176 7.699558 7.732936 7.766309 7.799678 7.833045 7.866408 7.899768 7.933125 7.966480 7.999833 8.033184 8.066534 8.099881 8.133228 8.166572 8.199916 8.233259 8.266600 8.299941 8.333281 8.366620 8.399959 8.433297 8.466635 8.499972 8.533308 8.566645 8.599981 8.633316 8.666652 8.699987 8.733322 8.766656 8.799991 8.833325 8.866660 8.899994 8.933328 8.966662 8.999996 9.033330 9.066664 9.099997 9.133331 9.166665 9.199998 9.233332 9.266665 9.299999 9.333332 9.366666 9.399999 9.433333 9.466666 9.499999 9.533333 9.566666 9.600000 9.633333 9.666666 9.700000 9.733333 9.766666 9.800000 9.833333 9.866667 9.900000 9.933333 9.966667 10.000000 10.033333 10.066667 10.100000 10.133333 10.166667 10.200000 10.233333 10.266667 10.300000 10.333333 10.366667 10.400000 10.433333 10.466667 10.500000 10.533333 10.566667 10.600000 10.633333 10.666667 10.700000 10.733333 10.766667 10.800000 10.833333 10.866667 10.900000 10.933333 10.966667 11.000000 11.033333 11.066667 11.100000 11.133333 11.166667 11.200000 11.233333 11.266667 11.300000 11.333333 11.366667 11.400000 11.433333 11.466667 11.500000 11.533333 11.566667 11.600000 11.633333 11.666667 11.700000 11.733333 11.766667 11.800000 11.833333 11.866667 11.900000 11.933333 11.966667 12.000000 12.033333 12.066667 12.100000 12.133333 12.166667 12.200000 12.233333 12.266667 12.300000 12.333333 12.366667 12.400000 12.433333 12.466667 12.500000 12.533333 12.566667 12.600000 12.633333 12.666667 12.700000 12.733333 12.766667 12.800000 12.833333 12.866667 12.900000 12.933333 12.966667 13.000000 13.000000 13.000000 13.000000 13.000000 13.000000 13.000000 13.000000 13.000000 13.000000 13.000000 13.000000 13.000000 13.000000 13.000000 13.000000 13.000000 13.000000 13.000000 13.000000 13.000000 13.000000 13.000000 13.000000 13.000000 13.000000 13.000000 13.000000 13.000000 13.000000 13.000000 13.000000 13.000000 13.000000 13.000000 13.000000 13.000000 13.000000 13.000000 13.000000 13.000000 13.000000 13.000000 13.000000 13.000000 13.000000 13.000000 13.000000 13.000000 13.000000 13.000000 13.000000 13.000000 13.000000 13.000000 13.000000 13.000000 13.000000 13.000000 13.000000 13.000000 13.000000 13.000000 13.000000 13.000000 13.000000 13.000000 13.000000 13.000000 13.000000 13.000000 13.000000 13.000000 13.000000 13.000000 13.000000 13.000000 13.000000 13.000000 13.000000 13.000000 13.000000 13.000000 13.000000 13.000000 13.000000 13.000000 13.000000
5.273806 5.311598 5.349242 5.386741 5.424094 5.461302 5.498367 5.535291 5.572075 5.608721 5.645232 5.681611 5.717858 5.753979 5.789975 5.825850 5.861606 5.897248 5.932777 5.968199 6.003516 6.038731 6.073849 6.108872 6.143804 6.178649 6.213410 6.248090 6.282693 6.317222 6.351681 6.386072 6.420399 6.454664 6.488872 6.523023 6.557123 6.591172 6.625175 6.659132 6.693048 6.726923 6.760761 6.794564 6.828333 6.862071 6.895780 6.929461 6.963116 6.996747 7.030356 7.063943 7.097511 7.131060 7.164593 7.198109 7.231611 7.265099 7.298574 7.332037 7.365490 7.398932 7.432365 7.465789 7.499206 7.532615 7.566018 7.599414 7.632804 7.666190 7.699570 7.732947 7.766319 7.799687 7.833053 7.866415 7.899774 7.933131 7.966486 7.999838 8.033189 8.066537 8.099885 8.133231 8.166575 8.199918 8.233261 8.266602 8.299943 8.333283 8.366622 8.399960 8.433298 8.466635 8.499972 8.533309 8.566645 8.599981 8.633317 8.666652 8.699987 8.733322 8.766657 8.799991 8.833326 8.866660 8.899994 8.933328 8.966662 8.999996 9.033330 9.066664 9.099997 9.133331 9.166665 9.199998 9.233332 9.266665 9.299999 9.333332 9.366666 9.399999 9.433333 9.466666 9.499999 9.533333 9.566666 9.600000 9.633333 9.666666 9.700000 9.733333 9.766666 9.800000 9.833333 9.866667 9.900000 9.933333 9.966667 10.000000 10.033333 10.066667 10.100000 10.133333 10.166667 10.200000 10.233333 10.266667 10.300000 10.333333 10.366667 10.400000 10.433333 10.466667 10.500000 10.533333 10.566667 10.600000 10.633333 10.666667 10.700000 10.733333 10.766667 10.800000 10.833333 10.866667 10.900000 10.933333 10.966667 11.000000 11.033333 11.066667 11.100000 11.133333 11.166667 11.200000 11.233333 11.266667 11.300000 11.333333 11.366667 11.400000 11.433333 11.466667 11.500000 11.533333 11.566667 11.600000 11.633333 11.666667 11.700000 11.733333 11.766667 11.800000 11.833333 11.866667 11.900000 11.933333 11.966667 12.000000 12.033333 12.066667 12.100000 12.133333 12.166667 12.200000 12.233333 12.266667 12.300000 12.333333 12.366667 12.400000 12.433333 12.466667 12.500000 12.533333 12.566667 12.600000 12.633333 12.666667 12.700000 12.733333 12.766667 12.800000 12.833333 12.866667 12.900000 12.933333 12.966667 13.000000 13.000000 13.000000 13.000000 13.000000 13.000000 13.000000 13.000000 13.000000 13.000000 13.000000 13.000000 13.000000 13.000000 13.000000 13.000000 13.000000 13.000000 13.000000 13.000000 13.000000 13.000000 13.000000 13.000000 13.000000 13.000000 13.000000 13.000000 13.000000 13.000000 13.000000 13.000000 13.000000 13.000000 13.000000 13.000000 13.000000 13.000000 13.000000 13.000000 13.000000 13.000000 13.000000 13.000000 13.000000 13.000000 13.000000 13.000000 13.000000 13.000000 13.000000 13.000000 13.000000 13.000000 13.000000 13.000000 13.000000 13.000000 13.000000 13.000000 13.000000 13.000000 13.000000 13.000000 13.000000 13.000000 13.000000 13.000000 13.000000 13.000000 13.000000 13.000000 13.000000 13.000000 13.000000 13.000000 13.000000 13.000000 13.000000 13.000000 13.000000 13.000000 13.000000 13.000000 13.000000 13.000000 13.000000 13.000000
5.274798 5.312542 5.350140 5.387594 5.424904 5.462071 5.499097 5.535982 5.572729 5.609340 5.645817 5.682163 5.718380 5.754470 5.790438 5.826286 5.862016 5.897633 5.933139 5.968539 6.003834 6.039029 6.074128 6.109133 6.144048 6.178877 6.213623 6.248289 6.282878 6.317394 6.351841 6.386221 6.420537 6.454792 6.488990 6.523134 6.557225 6.591266 6.625262 6.659213 6.693122 6.726991 6.760824 6.794622 6.828386 6.862120 6.895825 6.929502 6.963154 6.996782 7.030388 7.063972 7.097537 7.131085 7.164615 7.198129 7.231629 7.265115 7.298589 7.332051 7.365502 7.398943 7.432375 7.465799 7.499214 7.532623 7.566025 7.599420 7.632810 7.666195 7.699575 7.732951 7.766323 7.799691 7.833056 7.866417 7.899777 7.933133 7.966488 7.999840 8.033190 8.066539 8.099886 8.133232 8.166576 8.199919 8.233262 8.266603 8.299943 8.333283 8.366622 8.399961 8.433298 8.466636 8.499973 8.533309 8.566645 8.599981 8.633317 8.666652 8.699987 8.733322 8.766657 8.799991 8.833326 8.866660 8.899994 8.933328 8.966662 8.999996 9.033330 9.066664 9.099997 9.133331 9.166665 9.199998 9.233332 9.266665 9.299999 9.333332 9.366666 9.399999 9.433333 9.466666 9.499999 9.533333 9.566666 9.600000 9.633333 9.666666 9.700000 9.733333 9.766666 9.800000 9.833333 9.866667 9.900000 9.933333 9.966667 10.000000 10.033333 10.066667 10.100000 10.133333 10.166667 10.200000 10.233333 10.266667 10.300000 10.333333 10.366667 10.400000 10.433333 10.466667 10.500000 10.533333 10.566667 10.600000 10.633333 10.666667 10.700000 10.733333 10.766667 10.800000 10.833333 10.866667 10.900000 10.933333 10.966667 11.000000 11.033333 11.066667 11.100000 11.133333 11.166667 11.200000 11.233333 11.266667 11.300000 11.333333 11.366667 11.400000 11.433333 11.466667 11.500000 11.533333 11.566667 11.600000 11.633333 11.666667 11.700000 11.733333 11.766667 11.800000 11.833333 11.866667 11.900000 11.933333 11.966667 12.000000 12.033333 12.066667 12.100000 12.133333 12.166667 12.200000 12.233333 12.266667 12.300000 12.333333 12.366667 12.400000 12.433333 12.466667 12.500000 12.533333 12.566667 12.600000 12.633333 12.666667 12.700000 12.733333 12.766667 12.800000 12.833333 12.866667 12.900000 12.933333 12.966667 13.000000 13.000000 13.000000 13.000000 13.000000 13.000000 13.000000 13.000000 13.000000 13.000000 13.000000 13.000000 13.000000 13.000000 13.000000 13.000000 13.000000 13.000000 13.000000 13.000000 13.000000 13.000000 13.000000 13.000000 13.000000 13.000000 13.000000 13.000000 13.000000 13.000000 13.000000 13.000000 13.000000 13.000000 13.000000 13.000000 13.000000 13.000000 13.000000 13.000000 13.000000 13.000000 13.000000 13.000000 13.000000 13.000000 13.000000 13.000000 13.000000 13.000000 13.000000 13.000000 13.000000 13.000000 13.000000 13.000000 13.000000 13.000000 13.000000 13.000000 13.000000 13.000000 13.000000 13.000000 13.000000 13.000000 13.000000 13.000000 13.000000 13.000000 13.000000 13.000000 13.000000 13.000000 13.000000 13.000000 13.000000 13.000000 13.000000 13.000000 13.000000 13.000000 13.000000 13.000000 13.000000 13.000000 13.000000 13.000000
5.274116 5.311893 5.349523 5.387007 5.424347 5.461543 5.498595 5.535507 5.572279 5.608915 5.645415 5.681783 5.718021 5.754132 5.790120 5.825986 5.861734 5.897368 5.932890 5.968305 6.003615 6.038824 6.073936 6.108954 6.143880 6.178720 6.213476 6.248152 6.282751 6.317276 6.351731 6.386118 6.420442 6.454704 6.488909 6.523058 6.557155 6.591202 6.625202 6.659157 6.693071 6.726944 6.760781 6.794582 6.828350 6.862086 6.895794 6.929474 6.963128 6.996758 7.030366 7.063952 7.097519 7.131068 7.164600 7.198115 7.231616 7.265104 7.298578 7.332041 7.365493 7.398935 7.432368 7.465792 7.499208 7.532617 7.566020 7.599416 7.632806 7.666191 7.699572 7.732948 7.766320 7.799688 7.833054 7.866416 7.899775 7.933132 7.966486 7.999839 8.033189 8.066538 8.099885 8.133231 8.166575 8.199919 8.233261 8.266602 8.299943 8.333283 8.366622 8.399960 8.433298 8.466636 8.499973 8.533309 8.566645 8.599981 8.633317 8.666652 8.699987 8.733322 8.766657 8.799991 8.833326 8.866660 8.899994 8.933328 8.966662 8.999996 9.033330 9.066664 9.099997 9.133331 9.166665 9.199998 9.233332 9.266665 9.299999 9.333332 9.366666 9.399999 9.433333 9.466666 9.499999 9.533333 9.566666 9.600000 9.633333 9.666666 9.700000 9.733333 9.766666 9.800000 9.833333 9.866667 9.900000 9.933333 9.966667 10.000000 10.033333 10.066667 10.100000 10.133333 10.166667 10.200000 10.233333 10.266667 10.300000 10.333333 10.366667 10.400000 10.433333 10.466667 10.500000 10.533333 10.566667 10.600000 10.633333 10.666667 10.700000 10.733333 10.766667 10.800000 10.833333 10.866667 10.900000 10.933333 10.966667 11.000000 11.033333 11.066667 11.100000 11.133333 11.166667 11.200000 11.233333 11.266667 11.300000 11.333333 11.366667 11.400000 11.433333 11.466667 11.500000 11.533333 11.566667 11.600000 11.633333 11.666667 11.700000 11.733333 11.766667 11.800000 11.833333 11.866667 11.900000 11.933333 11.966667 12.000000 12.033333 12.066667 12.100000 12.133333 12.166667 12.200000 12.233333 12.266667 12.300000 12.333333 12.366667 12.400000 12.433333 12.466667 12.500000 12.533333 12.566667 12.600000 12.633333 12.666667 12.700000 12.733333 12.766667 12.800000 12.833333 12.866667 12.900000 12.933333 12.966667 13.000000 13.000000 13.000000 13.000000 13.000000 13.000000 13.000000 13.000000 13.000000 13.000000 13.000000 13.000000 13.000000 13.000000 13.000000 13.000000 13.000000 13.000000 13.000000 13.000000 13.000000 13.000000 13.000000 13.000000 13.000000 13.000000 13.000000 13.000000 13.000000 13.000000 13.000000 13.000000 13.000000 13.000000 13.000000 13.000000 13.000000 13.000000 13.000000 13.000000 13.000000 13.000000 13.000000 13.000000 13.000000 13.000000 13.000000 13.000000 13.000000 13.000000 13.000000 13.000000 13.000000 13.000000 13.000000 13.000000 13.000000 13.000000 13.000000 13.000000 13.000000 13.000000 13.000000 13.000000 13.000000 13.000000 13.000000 13.000000 13.000000 13.000000 13.000000 13.000000 13.000000 13.000000 13.000000 13.000000 13.000000 13.000000 13.000000 13.000000 13.000000 13.000000 13.000000 13.000000 13.000000 13.000000 13.000000 13.000000
5.271768 5.309657 5.347397 5.384987 5.422428 5.459721 5.496868 5.533871 5.570731 5.607450 5.644030 5.680475 5.716787 5.752969 5.789023 5.824954 5.860763 5.896456 5.932034 5.967501 6.002861 6.038118 6.073275 6.108335 6.143302 6.178180 6.212973 6.247682 6.282313 6.316869 6.351352 6.385766 6.420115 6.454401 6.488627 6.522797 6.556913 6.590979 6.624995 6.658967 6.692895 6.726782 6.760631 6.794444 6.828223 6.861970 6.895687 6.929376 6.963038 6.996676 7.030290 7.063883 7.097456 7.131010 7.164547 7.198067 7.231573 7.265064 7.298542 7.332009 7.365464 7.398908 7.432344 7.465770 7.499188 7.532599 7.566003 7.599401 7.632793 7.666179 7.699561 7.732938 7.766311 7.799681 7.833046 7.866409 7.899769 7.933127 7.966482 7.999834 8.033185 8.066535 8.099882 8.133228 8.166573 8.199917 8.233259 8.266601 8.299942 8.333281 8.366621 8.399959 8.433297 8.466635 8.499972 8.533308 8.566645 8.599981 8.633316 8.666652 8.699987 8.733322 8.766656 8.799991 8.833325 8.866660 8.899994 8.933328 8.966662 8.999996 9.033330 9.066664 9.099997 9.133331 9.166665 9.199998 9.233332 9.266665 9.299999 9.333332 9.366666 9.399999 9.433333 9.466666 9.499999 9.533333 9.566666 9.600000 9.633333 9.666666 9.700000 9.733333 9.766666 9.800000 9.833333 9.866667 9.900000 9.933333 9.966667 10.000000 10.033333 10.066667 10.100000 10.133333 10.166667 10.200000 10.233333 10.266667 10.300000 10.333333 10.366667 10.400000 10.433333 10.466667 10.500000 10.533333 10.566667 10.600000 10.633333 10.666667 10.700000 10.733333 10.766667 10.800000 10.833333 10.866667 10.900000 10.933333 10.966667 11.000000 11.033333 11.066667 11.100000 11.133333 11.166667 11.200000 11.233333 11.266667 11.300000 11.333333 11.366667 11.400000 11.433333 11.466667 11.500000 11.533333 11.566667 11.600000 11.633333 11.666667 11.700000 11.733333 11.766667 11.800000 11.833333 11.866667 11.900000 11.933333 11.966667 12.000000 12.033333 12.066667 12.100000 12.133333 12.166667 12.200000 12.233333 12.266667 12.300000 12.333333 12.366667 12.400000 12.433333 12.466667 12.500000 12.533333 12.566667 12.600000 12.633333 12.666667 12.700000 12.733333 12.766667 12.800000 12.833333 12.866667 12.900000 12.933333 12.966667 13.000000 13.000000 13.000000 13.000000 13.000000 13.000000 13.000000 13.000000 13.000000 13.000000 13.000000 13.000000 13.000000 13.000000 13.000000 13.000000 13.000000 13.000000 13.000000 13.000000 13.000000 13.000000 13.000000 13.000000 13.000000 13.000000 13.000000 13.000000 13.000000 13.000000 13.000000 13.000000 13.000000 13.000000 13.000000 13.000000 13.000000 13.000000 13.000000 13.000000 13.000000 13.000000 13.000000 13.000000 13.000000 13.000000 13.000000 13.000000 13.000000 13.000000 13.000000 13.000000 13.000000 13.000000 13.000000 13.000000 13.000000 13.000000 13.000000 13.000000 13.000000 13.000000 13.000000 13.000000 13.000000 13.000000 13.000000 13.000000 13.000000 13.000000 13.000000 13.000000 13.000000 13.000000 13.000000 13.000000 13.000000 13.000000 13.000000 13.000000 13.000000 13.000000 13.000000 13.000000 13.000000 13.000000 13.000000 13.000000
5.267778 5.305859 5.343784 5.381552 5.419166 5.456626 5.493934 5.531090 5.568098 5.604960 5.641677 5.678253 5.714690 5.750991 5.787160 5.823200 5.859114 5.894905 5.930577 5.966135 6.001580 6.036918 6.072151 6.107284 6.142320 6.177263 6.212116 6.246884 6.281570 6.316177 6.350708 6.385168 6.419559 6.453885 6.488149 6.522354 6.556503 6.590599 6.624645 6.658643 6.692596 6.726507 6.760378 6.794211 6.828008 6.861773 6.895506 6.929209 6.962886 6.996536 7.030162 7.063766 7.097349 7.130913 7.164458 7.197986 7.231499 7.264997 7.298481 7.331953 7.365413 7.398863 7.432302 7.465732 7.499154 7.532568 7.565975 7.599376 7.632770 7.666159 7.699543 7.732922 7.766296 7.799667 7.833034 7.866398 7.899760 7.933118 7.966474 7.999828 8.033179 8.066529 8.099877 8.133224 8.166569 8.199913 8.233256 8.266598 8.299939 8.333279 8.366619 8.399958 8.433296 8.466633 8.499971 8.533307 8.566644 8.599980 8.633316 8.666651 8.699986 8.733321 8.766656 8.799991 8.833325 8.866659 8.899994 8.933328 8.966662 8.999996 9.033330 9.066663 9.099997 9.133331 9.166665 9.199998 9.233332 9.266665 9.299999 9.333332 9.366666 9.399999 9.433333 9.466666 9.499999 9.533333 9.566666 9.600000 9.633333 9.666666 9.700000 9.733333 9.766666 9.800000 9.833333 9.866667 9.900000 9.933333 9.966667 10.000000 10.033333 10.066667 10.100000 10.133333 10.166667 10.200000 10.233333 10.266667 10.300000 10.333333 10.366667 10.400000 10.433333 10.466667 10.500000 10.533333 10.566667 10.600000 10.633333 10.666667 10.700000 10.733333 10.766667 10.800000 10.833333 10.866667 10.900000 10.933333 10.966667 11.000000 11.033333 11.066667 11.100000 11.133333 11.166667 11.200000 11.233333 11.266667 11.300000 11.333333 11.366667 11.400000 11.433333 11.466667 11.500000 11.533333 11.566667 11.600000 11.633333 11.666667 11.700000 11.733333 11.766667 11.800000 11.833333 11.866667 11.900000 11.933333 11.966667 12.000000 12.033333 12.066667 12.100000 12.133333 12.166667 12.200000 12.233333 12.266667 12.300000 12.333333 12.366667 12.400000 12.433333 12.466667 12.500000 12.533333 12.566667 12.600000 12.633333 12.666667 12.700000 12.733333 12.766667 12.800000 12.833333 12.866667 12.900000 12.933333 12.966667 13.000000 13.000000 13.000000 13.000000 13.000000 13.000000 13.000000 13.000000 13.000000 13.000000 13.000000 13.000000 13.000000 13.000000 13.000000 13.000000 13.000000 13.000000 13.000000 13.000000 13.000000 13.000000 13.000000 13.000000 13.000000 13.000000 13.000000 13.000000 13.000000 13.000000 13.000000 13.000000 13.000000 13.000000 13.000000 13.000000 13.000000 13.000000 13.000000 13.000000 13.000000 13.000000 13.000000 13.000000 13.000000 13.000000 13.000000 13.000000 13.000000 13.000000 13.000000 13.000000 13.000000 13.000000 13.000000 13.000000 13.000000 13.000000 13.000000 13.000000 13.000000 13.000000 13.000000 13.000000 13.000000 13.000000 13.000000 13.000000 13.000000 13.000000 13.000000 13.000000 13.000000 13.000000 13.000000 13.000000 13.000000 13.000000 13.000000 13.000000 13.000000 13.000000 13.000000 13.000000 13.000000 13.000000 13.000000 13.000000
5.262187 5.300536 5.338721 5.376740 5.414596 5.452289 5.489822 5.527194 5.564410 5.601471 5.638380 5.675139 5.711751 5.748221 5.784550 5.820742 5.856802 5.892732 5.928537 5.964220 5.999785 6.035236 6.070577 6.105811 6.140944 6.175977 6.210917 6.245766 6.280528 6.315207 6.349806 6.384329 6.418780 6.453163 6.487479 6.521734 6.555929 6.590068 6.624154 6.658189 6.692178 6.726121 6.760022 6.793884 6.827707 6.861496 6.895252 6.928976 6.962672 6.996340 7.029983 7.063602 7.097200 7.130776 7.164333 7.197872 7.231395 7.264902 7.298395 7.331875 7.365342 7.398798 7.432244 7.465680 7.499107 7.532525 7.565936 7.599340 7.632738 7.666130 7.699517 7.732898 7.766275 7.799648 7.833018 7.866383 7.899746 7.933106 7.966463 7.999818 8.033171 8.066521 8.099870 8.133218 8.166564 8.199908 8.233252 8.266594 8.299936 8.333276 8.366616 8.399955 8.433294 8.466632 8.499969 8.533306 8.566642 8.599979 8.633315 8.666650 8.699985 8.733321 8.766655 8.799990 8.833325 8.866659 8.899993 8.933328 8.966662 8.999996 9.033330 9.066663 9.099997 9.133331 9.166664 9.199998 9.233332 9.266665 9.299999 9.333332 9.366666 9.399999 9.433333 9.466666 9.499999 9.533333 9.566666 9.600000 9.633333 9.666666 9.700000 9.733333 9.766666 9.800000 9.833333 9.866667 9.900000 9.933333 9.966667 10.000000 10.033333 10.066667 10.100000 10.133333 10.166667 10.200000 10.233333 10.266667 10.300000 10.333333 10.366667 10.400000 10.433333 10.466667 10.500000 10.533333 10.566667 10.600000 10.633333 10.666667 10.700000 10.733333 10.766667 10.800000 10.833333 10.866667 10.900000 10.933333 10.966667 11.000000 11.033333 11.066667 11.100000 11.133333 11.166667 11.200000 11.233333 11.266667 11.300000 11.333333 11.366667 11.400000 11.433333 11.466667 11.500000 11.533333 11.566667 11.600000 11.633333 11.666667 11.700000 11.733333 11.766667 11.800000 11.833333 11.866667 11.900000 11.933333 11.966667 12.000000 12.033333 12.066667 12.100000 12.133333 12.166667 12.200000 12.233333 12.266667 12.300000 12.333333 12.366667 12.400000 12.433333 12.466667 12.500000 12.533333 12.566667 12.600000 12.633333 12.666667 12.700000 12.733333 12.766667 12.800000 12.833333 12.866667 12.900000 12.933333 12.966667 13.000000 13.000000 13.000000 13.000000 13.000000 13.000000 13.000000 13.000000 13.000000 13.000000 13.000000 13.000000 13.000000 13.000000 13.000000 13.000000 13.000000 13.000000 13.000000 13.000000 13.000000 13.000000 13.000000 13.000000 13.000000 13.000000 13.000000 13.000000 13.000000 13.000000 13.000000 13.000000 13.000000 13.000000 13.000000 13.000000 13.000000 13.000000 13.000000 13.000000 13.000000 13.000000 13.000000 13.000000 13.000000 13.000000 13.000000 13.000000 13.000000 13.000000 13.000000 13.000000 13.000000 13.000000 13.000000 13.000000 13.000000 13.000000 13.000000 13.000000 13.000000 13.000000 13.000000 13.000000 13.000000 13.000000 13.000000 13.000000 13.000000 13.000000 13.000000 13.000000 13.000000 13.000000 13.000000 13.000000 13.000000 13.000000 13.000000 13.000000 13.000000 13.000000 13.000000 13.000000 13.000000 13.000000 13.000000 13.000000
5.255055 5.293747 5.332262 5.370601 5.408766 5.446757 5.484576 5.522224 5.559705 5.597021 5.634173 5.671166 5.708003 5.744686 5.781220 5.817607 5.853853 5.889961 5.925934 5.961777 5.997495 6.033090 6.068568 6.103932 6.139188 6.174338 6.209387 6.244339 6.279198 6.313969 6.348655 6.383260 6.417787 6.452241 6.486624 6.520942 6.555196 6.589390 6.623527 6.657611 6.691644 6.725629 6.759569 6.793466 6.827323 6.861143 6.894928 6.928679 6.962399 6.996090 7.029755 7.063393 7.097008 7.130601 7.164174 7.197727 7.231263 7.264782 7.298286 7.331775 7.365252 7.398716 7.432169 7.465612 7.499045 7.532470 7.565886 7.599295 7.632698 7.666094 7.699484 7.732869 7.766249 7.799624 7.832996 7.866364 7.899729 7.933090 7.966449 7.999805 8.033159 8.066511 8.099861 8.133210 8.166557 8.199902 8.233246 8.266589 8.299931 8.333272 8.366613 8.399952 8.433291 8.466629 8.499967 8.533304 8.566641 8.599977 8.633313 8.666649 8.699984 8.733320 8.766655 8.799989 8.833324 8.866659 8.899993 8.933327 8.966661 8.999995 9.033329 9.066663 9.099997 9.133331 9.166664 9.199998 9.233332 9.266665 9.299999 9.333332 9.366666 9.399999 9.433333 9.466666 9.499999 9.533333 9.566666 9.600000 9.633333 9.666666 9.700000 9.733333 9.766666 9.800000 9.833333 9.866667 9.900000 9.933333 9.966667 10.000000 10.033333 10.066667 10.100000 10.133333 10.166667 10.200000 10.233333 10.266667 10.300000 10.333333 10.366667 10.400000 10.433333 10.466667 10.500000 10.533333 10.566667 10.600000 10.633333 10.666667 10.700000 10.733333 10.766667 10.800000 10.833333 10.866667 10.900000 10.933333 10.966667 11.000000 11.033333 11.066667 11.100000 11.133333 11.166667 11.200000 11.233333 11.266667 11.300000 11.333333 11.366667 11.400000 11.433333 11.466667 11.500000 11.533333 11.566667 11.600000 11.633333 11.666667 11.700000 11.733333 11.766667 11.800000 11.833333 11.866667 11.900000 11.933333 11.966667 12.000000 12.033333 12.066667 12.100000 12.133333 12.166667 12.200000 12.233333 12.266667 12.300000 12.333333 12.366667 12.400000 12.433333 12.466667 12.500000 12.533333 12.566667 12.600000 12.633333 12.666667 12.700000 12.733333 12.766667 12.800000 12.833333 12.866667 12.900000 12.933333 12.966667 13.000000 13.000000 13.000000 13.000000 13.000000 13.000000 13.000000 13.000000 13.000000 13.000000 13.000000 13.000000 13.000000 13.000000 13.000000 13.000000 13.000000 13.000000 13.000000 13.000000 13.000000 13.000000 13.000000 13.000000 13.000000 13.000000 13.000000 13.000000 13.000000 13.000000 13.000000 13.000000 13.000000 13.000000 13.000000 13.000000 13.000000 13.000000 13.000000 13.000000 13.000000 13.000000 13.000000 13.000000 13.000000 13.000000 13.000000 13.000000 13.000000 13.000000 13.000000 13.000000 13.000000 13.000000 13.000000 13.000000 13.000000 13.000000 13.000000 13.000000 13.000000 13.000000 13.000000 13.000000 13.000000 13.000000 13.000000 13.000000 13.000000 13.000000 13.000000 13.000000 13.000000 13.000000 13.000000 13.000000 13.000000 13.000000 13.000000 13.000000 13.000000 13.000000 13.000000 13.000000 13.000000 13.000000 13.000000 13.000000
5.246459 5.285563 5.324478 5.363203 5.401740 5.440089 5.478254 5.516235 5.554035 5.591657 5.629103 5.666378 5.703485 5.740426 5.777206 5.813829 5.850299 5.886620 5.922797 5.958834 5.994735 6.030504 6.066147 6.101668 6.137071 6.172361 6.207542 6.242619 6.277596 6.312478 6.347268 6.381970 6.416590 6.451130 6.485594 6.519987 6.554312 6.588573 6.622772 6.656913 6.691000 6.725035 6.759022 6.792963 6.826860 6.860718 6.894537 6.928320 6.962070 6.995789 7.029479 7.063141 7.096778 7.130391 7.163982 7.197552 7.231103 7.264637 7.298154 7.331655 7.365143 7.398617 7.432080 7.465531 7.498972 7.532404 7.565826 7.599241 7.632649 7.666049 7.699444 7.732833 7.766216 7.799595 7.832970 7.866341 7.899708 7.933071 7.966432 7.999790 8.033146 8.066499 8.099851 8.133200 8.166548 8.199894 8.233240 8.266583 8.299926 8.333268 8.366608 8.399948 8.433288 8.466626 8.499964 8.533302 8.566639 8.599975 8.633312 8.666648 8.699983 8.733319 8.766654 8.799989 8.833323 8.866658 8.899992 8.933327 8.966661 8.999995 9.033329 9.066663 9.099997 9.133330 9.166664 9.199998 9.233331 9.266665 9.299999 9.333332 9.366666 9.399999 9.433333 9.466666 9.499999 9.533333 9.566666 9.600000 9.633333 9.666666 9.700000 9.733333 9.766666 9.800000 9.833333 9.866667 9.900000 9.933333 9.966667 10.000000 10.033333 10.066667 10.100000 10.133333 10.166667 10.200000 10.233333 10.266667 10.300000 10.333333 10.366667 10.400000 10.433333 10.466667 10.500000 10.533333 10.566667 10.600000 10.633333 10.666667 10.700000 10.733333 10.766667 10.800000 10.833333 10.866667 10.900000 10.933333 10.966667 11.000000 11.033333 11.066667 11.100000 11.133333 11.166667 11.200000 11.233333 11.266667 11.300000 11.333333 11.366667 11.400000 11.433333 11.466667 11.500000 11.533333 11.566667 11.600000 11.633333 11.666667 11.700000 11.733333 11.766667 11.800000 11.833333 11.866667 11.900000 11.933333 11.966667 12.000000 12.033333 12.066667 12.100000 12.133333 12.166667 12.200000 12.233333 12.266667 12.300000 12.333333 12.366667 12.400000 12.433333 12.466667 12.500000 12.533333 12.566667 12.600000 12.633333 12.666667 12.700000 12.733333 12.766667 12.800000 12.833333 12.866667 12.900000 12.933333 12.966667 13.000000 13.000000 13.000000 13.000000 13.000000 13.000000 13.000000 13.000000 13.000000 13.000000 13.000000 13.000000 13.000000 13.000000 13.000000 13.000000 13.000000 13.000000 13.000000 13.000000 13.000000 13.000000 13.000000 13.000000 13.000000 13.000000 13.000000 13.000000 13.000000 13.000000 13.000000 13.000000 13.000000 13.000000 13.000000 13.000000 13.000000 13.000000 13.000000 13.000000 13.000000 13.000000 13.000000 13.000000 13.000000 13.000000 13.000000 13.000000 13.000000 13.000000 13.000000 13.000000 13.000000 13.000000 13.000000 13.000000 13.000000 13.000000 13.000000 13.000000 13.000000 13.000000 13.000000 13.000000 13.000000 13.000000 13.000000 13.000000 13.000000 13.000000 13.000000 13.000000 13.000000 13.000000 13.000000 13.000000 13.000000 13.000000 13.000000 13.000000 13.000000 13.000000 13.000000 13.000000 13.000000 13.000000 13.000000 13.000000
5.236496 5.276079 5.315456 5.354628 5.393596 5.432361 5.470926 5.509292 5.547463 5.585440 5.623228 5.660829 5.698248 5.735489 5.772554 5.809450 5.846180 5.882749 5.919161 5.955422 5.991536 6.027507 6.063342 6.099044 6.134618 6.170071 6.205405 6.240626 6.275740 6.310749 6.345660 6.380476 6.415202 6.449842 6.484400 6.518881 6.553288 6.587625 6.621896 6.656105 6.690254 6.724348 6.758388 6.792380 6.826324 6.860225 6.894084 6.927905 6.961690 6.995440 7.029159 7.062849 7.096511 7.130147 7.163759 7.197349 7.230918 7.264468 7.298001 7.331516 7.365017 7.398503 7.431976 7.465437 7.498887 7.532326 7.565757 7.599178 7.632592 7.665998 7.699398 7.732791 7.766179 7.799562 7.832940 7.866314 7.899683 7.933050 7.966413 7.999773 8.033130 8.066486 8.099838 8.133189 8.166538 8.199886 8.233232 8.266576 8.299920 8.333262 8.366604 8.399944 8.433284 8.466623 8.499961 8.533299 8.566637 8.599973 8.633310 8.666646 8.699982 8.733317 8.766653 8.799988 8.833323 8.866657 8.899992 8.933326 8.966660 8.999994 9.033329 9.066663 9.099996 9.133330 9.166664 9.199998 9.233331 9.266665 9.299998 9.333332 9.366665 9.399999 9.433332 9.466666 9.499999 9.533333 9.566666 9.600000 9.633333 9.666666 9.700000 9.733333 9.766666 9.800000 9.833333 9.866666 9.900000 9.933333 9.966667 10.000000 10.033333 10.066667 10.100000 10.133333 10.166667 10.200000 10.233333 10.266667 10.300000 10.333333 10.366667 10.400000 10.433333 10.466667 10.500000 10.533333 10.566667 10.600000 10.633333 10.666667 10.700000 10.733333 10.766667 10.800000 10.833333 10.866667 10.900000 10.933333 10.966667 11.000000 11.033333 11.066667 11.100000 11.133333 11.166667 11.200000 11.233333 11.266667 11.300000 11.333333 11.366667 11.400000 11.433333 11.466667 11.500000 11.533333 11.566667 11.600000 11.633333 11.666667 11.700000 11.733333 11.766667 11.800000 11.833333 11.866667 11.900000 11.933333 11.966667 12.000000 12.033333 12.066667 12.100000 12.133333 12.166667 12.200000 12.233333 12.266667 12.300000 12.333333 12.366667 12.400000 12.433333 12.466667 12.500000 12.533333 12.566667 12.600000 12.633333 12.666667 12.700000 12.733333 12.766667 12.800000 12.833333 12.866667 12.900000 12.933333 12.966667 13.000000 13.000000 13.000000 13.000000 13.000000 13.000000 13.000000 13.000000 13.000000 13.000000 13.000000 13.000000 13.000000 13.000000 13.000000 13.000000 13.000000 13.000000 13.000000 13.000000 13.000000 13.000000 13.000000 13.000000 13.000000 13.000000 13.000000 13.000000 13.000000 13.000000 13.000000 13.000000 13.000000 13.000000 13.000000 13.000000 13.000000 13.000000 13.000000 13.000000 13.000000 13.000000 13.000000 13.000000 13.000000 13.000000 13.000000 13.000000 13.000000 13.000000 13.000000 13.000000 13.000000 13.000000 13.000000 13.000000 13.000000 13.000000 13.000000 13.000000 13.000000 13.000000 13.000000 13.000000 13.000000 13.000000 13.000000 13.000000 13.000000 13.000000 13.000000 13.000000 13.000000 13.000000 13.000000 13.000000 13.000000 13.000000 13.000000 13.000000 13.000000 13.000000 13.000000 13.000000 13.000000 13.000000 13.000000 13.000000
5.225283 5.265404 5.305302 5.344977 5.384430 5.423663 5.462679 5.501478 5.540065 5.578443 5.616614 5.654583 5.692354 5.729931 5.767319 5.804521 5.841544 5.878391 5.915069 5.951582 5.987935 6.024134 6.060184 6.096090 6.131858 6.167492 6.202999 6.238383 6.273650 6.308804 6.343850 6.378794 6.413640 6.448393 6.483057 6.517636 6.552136 6.586559 6.620911 6.655195 6.689415 6.723573 6.757675 6.791723 6.825720 6.859670 6.893575 6.927437 6.961261 6.995048 7.028800 7.062520 7.096210 7.129873 7.163509 7.197121 7.230710 7.264279 7.297828 7.331360 7.364874 7.398374 7.431859 7.465331 7.498791 7.532240 7.565678 7.599107 7.632528 7.665941 7.699346 7.732745 7.766137 7.799524 7.832906 7.866283 7.899656 7.933025 7.966391 7.999753 8.033113 8.066470 8.099824 8.133177 8.166527 8.199876 8.233223 8.266569 8.299913 8.333256 8.366598 8.399939 8.433280 8.466619 8.499958 8.533296 8.566634 8.599971 8.633308 8.666644 8.699980 8.733316 8.766652 8.799987 8.833322 8.866656 8.899991 8.933326 8.966660 8.999994 9.033328 9.066662 9.099996 9.133330 9.166664 9.199997 9.233331 9.266665 9.299998 9.333332 9.366665 9.399999 9.433332 9.466666 9.499999 9.533333 9.566666 9.600000 9.633333 9.666666 9.700000 9.733333 9.766666 9.800000 9.833333 9.866666 9.900000 9.933333 9.966667 10.000000 10.033333 10.066667 10.100000 10.133333 10.166667 10.200000 10.233333 10.266667 10.300000 10.333333 10.366667 10.400000 10.433333 10.466667 10.500000 10.533333 10.566667 10.600000 10.633333 10.666667 10.700000 10.733333 10.766667 10.800000 10.833333 10.866667 10.900000 10.933333 10.966667 11.000000 11.033333 11.066667 11.100000 11.133333 11.166667 11.200000 11.233333 11.266667 11.300000 11.333333 11.366667 11.400000 11.433333 11.466667 11.500000 11.533333 11.566667 11.600000 11.633333 11.666667 11.700000 11.733333 11.766667 11.800000 11.833333 11.866667 11.900000 11.933333 11.966667 12.000000 12.033333 12.066667 12.100000 12.133333 12.166667 12.200000 12.233333 12.266667 12.300000 12.333333 12.366667 12.400000 12.433333 12.466667 12.500000 12.533333 12.566667 12.600000 12.633333 12.666667 12.700000 12.733333 12.766667 12.800000 12.833333 12.866667 12.900000 12.933333 12.966667 13.000000 13.000000 13.000000 13.000000 13.000000 13.000000 13.000000 13.000000 13.000000 13.000000 13.000000 13.000000 13.000000 13.000000 13.000000 13.000000 13.000000 13.000000 13.000000 13.000000 13.000000 13.000000 13.000000 13.000000 13.000000 13.000000 13.000000 13.000000 13.000000 13.000000 13.000000 13.000000 13.000000 13.000000 13.000000 13.000000 13.000000 13.000000 13.000000 13.000000 13.000000 13.000000 13.000000 13.000000 13.000000 13.000000 13.000000 13.000000 13.000000 13.000000 13.000000 13.000000 13.000000 13.000000 13.000000 13.000000 13.000000 13.000000 13.000000 13.000000 13.000000 13.000000 13.000000 13.000000 13.000000 13.000000 13.000000 13.000000 13.000000 13.000000 13.000000 13.000000 13.000000 13.000000 13.000000 13.000000 13.000000 13.000000 13.000000 13.000000 13.000000 13.000000 13.000000 13.000000 13.000000 13.000000 13.000000 13.000000
5.212955 5.253668 5.294138 5.334366 5.374353 5.414101 5.453611 5.492888 5.531933 5.570750 5.609344 5.647717 5.685875 5.723822 5.761563 5.799103 5.836447 5.873601 5.910570 5.947360 5.983976 6.020425 6.056712 6.092842 6.128822 6.164658 6.200354 6.235917 6.271352 6.306665 6.341861 6.376945 6.411923 6.446799 6.481579 6.516267 6.550869 6.585388 6.619828 6.654195 6.688492 6.722722 6.756891 6.791001 6.825056 6.859060 6.893014 6.926923 6.960790 6.994616 7.028405 7.062159 7.095880 7.129571 7.163234 7.196870 7.230482 7.264071 7.297639 7.331188 7.364718 7.398232 7.431730 7.465214 7.498685 7.532144 7.565592 7.599030 7.632458 7.665877 7.699289 7.732693 7.766091 7.799483 7.832869 7.866250 7.899626 7.932999 7.966367 7.999732 8.033094 8.066453 8.099809 8.133163 8.166515 8.199865 8.233213 8.266560 8.299905 8.333249 8.366592 8.399934 8.433275 8.466615 8.499954 8.533293 8.566631 8.599969 8.633306 8.666642 8.699979 8.733315 8.766650 8.799986 8.833321 8.866656 8.899990 8.933325 8.966659 8.999993 9.033328 9.066662 9.099996 9.133330 9.166663 9.199997 9.233331 9.266665 9.299998 9.333332 9.366665 9.399999 9.433332 9.466666 9.499999 9.533333 9.566666 9.599999 9.633333 9.666666 9.700000 9.733333 9.766666 9.800000 9.833333 9.866666 9.900000 9.933333 9.966667 10.000000 10.033333 10.066667 10.100000 10.133333 10.166667 10.200000 10.233333 10.266667 10.300000 10.333333 10.366667 10.400000 10.433333 10.466667 10.500000 10.533333 10.566667 10.600000 10.633333 10.666667 10.700000 10.733333 10.766667 10.800000 10.833333 10.866667 10.900000 10.933333 10.966667 11.000000 11.033333 11.066667 11.100000 11.133333 11.166667 11.200000 11.233333 11.266667 11.300000 11.333333 11.366667 11.400000 11.433333 11.466667 11.500000 11.533333 11.566667 11.600000 11.633333 11.666667 11.700000 11.733333 11.766667 11.800000 11.833333 11.866667 11.900000 11.933333 11.966667 12.000000 12.033333 12.066667 12.100000 12.133333 12.166667 12.200000 12.233333 12.266667 12.300000 12.333333 12.366667 12.400000 12.433333 12.466667 12.500000 12.533333 12.566667 12.600000 12.633333 12.666667 12.700000 12.733333 12.766667 12.800000 12.833333 12.866667 12.900000 12.933333 12.966667 13.000000 13.000000 13.000000 13.000000 13.000000 13.000000 13.000000 13.000000 13.000000 13.000000 13.000000 13.000000 13.000000 13.000000 13.000000 13.000000 13.000000 13.000000 13.000000 13.000000 13.000000 13.000000 13.000000 13.000000 13.000000 13.000000 13.000000 13.000000 13.000000 13.000000 13.000000 13.000000 13.000000 13.000000 13.000000 13.000000 13.000000 13.000000 13.000000 13.000000 13.000000 13.000000 13.000000 13.000000 13.000000 13.000000 13.000000 13.000000 13.000000 13.000000 13.000000 13.000000 13.000000 13.000000 13.000000 13.000000 13.000000 13.000000 13.000000 13.000000 13.000000 13.000000 13.000000 13.000000 13.000000 13.000000 13.000000 13.000000 13.000000 13.000000 13.000000 13.000000 13.000000 13.000000 13.000000 13.000000 13.000000 13.000000 13.000000 13.000000 13.000000 13.000000 13.000000 13.000000 13.000000 13.000000 13.000000 13.000000
5.199668 5.241019 5.282106 5.322930 5.363492 5.403794 5.443839 5.483629 5.523168 5.562459 5.601507 5.640316 5.678891 5.717237 5.755359 5.793262 5.830953 5.868437 5.905721 5.942810 5.979710 6.016428 6.052970 6.089342 6.125551 6.161603 6.197503 6.233259 6.268876 6.304360 6.339717 6.374952 6.410072 6.445082 6.479987 6.514792 6.549503 6.584124 6.618661 6.653117 6.687497 6.721805 6.756046 6.790223 6.824341 6.858402 6.892410 6.926369 6.960281 6.994150 7.027979 7.061769 7.095524 7.129246 7.162937 7.196599 7.230235 7.263847 7.297435 7.331002 7.364550 7.398079 7.431592 7.465089 7.498572 7.532042 7.565499 7.598946 7.632382 7.665809 7.699227 7.732638 7.766041 7.799438 7.832829 7.866214 7.899594 7.932970 7.966341 7.999709 8.033073 8.066434 8.099793 8.133148 8.166502 8.199853 8.233203 8.266551 8.299897 8.333242 8.366586 8.399928 8.433270 8.466611 8.499950 8.533290 8.566628 8.599966 8.633303 8.666640 8.699977 8.733313 8.766649 8.799984 8.833320 8.866655 8.899989 8.933324 8.966659 8.999993 9.033327 9.066661 9.099995 9.133329 9.166663 9.199997 9.233331 9.266664 9.299998 9.333332 9.366665 9.399999 9.433332 9.466666 9.499999 9.533333 9.566666 9.599999 9.633333 9.666666 9.700000 9.733333 9.766666 9.800000 9.833333 9.866666 9.900000 9.933333 9.966667 10.000000 10.033333 10.066667 10.100000 10.133333 10.166667 10.200000 10.233333 10.266667 10.300000 10.333333 10.366667 10.400000 10.433333 10.466667 10.500000 10.533333 10.566667 10.600000 10.633333 10.666667 10.700000 10.733333 10.766667 10.800000 10.833333 10.866667 10.900000 10.933333 10.966667 11.000000 11.033333 11.066667 11.100000 11.133333 11.166667 11.200000 11.233333 11.266667 11.300000 11.333333 11.366667 11.400000 11.433333 11.466667 11.500000 11.533333 11.566667 11.600000 11.633333 11.666667 11.700000 11.733333 11.766667 11.800000 11.833333 11.866667 11.900000 11.933333 11.966667 12.000000 12.033333 12.066667 12.100000 12.133333 12.166667 12.200000 12.233333 12.266667 12.300000 12.333333 12.366667 12.400000 12.433333 12.466667 12.500000 12.533333 12.566667 12.600000 12.633333 12.666667 12.700000 12.733333 12.766667 12.800000 12.833333 12.866667 12.900000 12.933333 12.966667 13.000000 13.000000 13.000000 13.000000 13.000000 13.000000 13.000000 13.000000 13.000000 13.000000 13.000000 13.000000 13.000000 13.000000 13.000000 13.000000 13.000000 13.000000 13.000000 13.000000 13.000000 13.000000 13.000000 13.000000 13.000000 13.000000 13.000000 13.000000 13.000000 13.000000 13.000000 13.000000 13.000000 13.000000 13.000000 13.000000 13.000000 13.000000 13.000000 13.000000 13.000000 13.000000 13.000000 13.000000 13.000000 13.000000 13.000000 13.000000 13.000000 13.000000 13.000000 13.000000 13.000000 13.000000 13.000000 13.000000 13.000000 13.000000 13.000000 13.000000 13.000000 13.000000 13.000000 13.000000 13.000000 13.000000 13.000000 13.000000 13.000000 13.000000 13.000000 13.000000 13.000000 13.000000 13.000000 13.000000 13.000000 13.000000 13.000000 13.000000 13.000000 13.000000 13.000000 13.000000 13.000000 13.000000 13.000000 13.000000
5.185596 5.227623 5.269363 5.310818 5.351989 5.392878 5.433489 5.473823 5.513885 5.553678 5.593208 5.632478 5.671495 5.710263 5.748788 5.787077 5.825135 5.862969 5.900585 5.937991 5.975191 6.012195 6.049007 6.085635 6.122087 6.158367 6.194484 6.230444 6.266253 6.301918 6.337446 6.372842 6.408112 6.443263 6.478301 6.513230 6.548057 6.582787 6.617424 6.651975 6.686443 6.720834 6.755151 6.789400 6.823583 6.857706 6.891771 6.925782 6.959743 6.993657 7.027527 7.061356 7.095147 7.128901 7.162622 7.196313 7.229974 7.263609 7.297219 7.330806 7.364371 7.397917 7.431445 7.464956 7.498452 7.531933 7.565401 7.598857 7.632302 7.665737 7.699162 7.732579 7.765988 7.799390 7.832786 7.866176 7.899560 7.932939 7.966314 7.999684 8.033051 8.066415 8.099775 8.133133 8.166488 8.199841 8.233192 8.266541 8.299888 8.333234 8.366579 8.399922 8.433265 8.466606 8.499946 8.533286 8.566625 8.599963 8.633301 8.666638 8.699975 8.733311 8.766647 8.799983 8.833318 8.866654 8.899989 8.933323 8.966658 8.999992 9.033327 9.066661 9.099995 9.133329 9.166663 9.199997 9.233330 9.266664 9.299998 9.333331 9.366665 9.399999 9.433332 9.466666 9.499999 9.533333 9.566666 9.599999 9.633333 9.666666 9.700000 9.733333 9.766666 9.800000 9.833333 9.866666 9.900000 9.933333 9.966667 10.000000 10.033333 10.066667 10.100000 10.133333 10.166667 10.200000 10.233333 10.266667 10.300000 10.333333 10.366667 10.400000 10.433333 10.466667 10.500000 10.533333 10.566667 10.600000 10.633333 10.666667 10.700000 10.733333 10.766667 10.800000 10.833333 10.866667 10.900000 10.933333 10.966667 11.000000 11.033333 11.066667 11.100000 11.133333 11.166667 11.200000 11.233333 11.266667 11.300000 11.333333 11.366667 11.400000 11.433333 11.466667 11.500000 11.533333 11.566667 11.600000 11.633333 11.666667 11.700000 11.733333 11.766667 11.800000 11.833333 11.866667 11.900000 11.933333 11.966667 12.000000 12.033333 12.066667 12.100000 12.133333 12.166667 12.200000 12.233333 12.266667 12.300000 12.333333 12.366667 12.400000 12.433333 12.466667 12.500000 12.533333 12.566667 12.600000 12.633333 12.666667 12.700000 12.733333 12.766667 12.800000 12.833333 12.866667 12.900000 12.933333 12.966667 13.000000 13.000000 13.000000 13.000000 13.000000 13.000000 13.000000 13.000000 13.000000 13.000000 13.000000 13.000000 13.000000 13.000000 13.000000 13.000000 13.000000 13.000000 13.000000 13.000000 13.000000 13.000000 13.000000 13.000000 13.000000 13.000000 13.000000 13.000000 13.000000 13.000000 13.000000 13.000000 13.000000 13.000000 13.000000 13.000000 13.000000 13.000000 13.000000 13.000000 13.000000 13.000000 13.000000 13.000000 13.000000 13.000000 13.000000 13.000000 13.000000 13.000000 13.000000 13.000000 13.000000 13.000000 13.000000 13.000000 13.000000 13.000000 13.000000 13.000000 13.000000 13.000000 13.000000 13.000000 13.000000 13.000000 13.000000 13.000000 13.000000 13.000000 13.000000 13.000000 13.000000 13.000000 13.000000 13.000000 13.000000 13.000000 13.000000 13.000000 13.000000 13.000000 13.000000 13.000000 13.000000 13.000000 13.000000 13.000000
5.170931 5.213662 5.256083 5.298196 5.340002 5.381503 5.422703 5.463604 5.504211 5.544527 5.584559 5.624310 5.663787 5.702995 5.741941 5.780631 5.819072 5.857270 5.895234 5.932969 5.970483 6.007783 6.044877 6.081772 6.118476 6.154995 6.191338 6.227510 6.263520 6.299374 6.335079 6.370642 6.406069 6.441368 6.476543 6.511602 6.546550 6.581393 6.616136 6.650785 6.685345 6.719822 6.754219 6.788541 6.822793 6.856980 6.891104 6.925171 6.959183 6.993144 7.027057 7.060926 7.094754 7.128542 7.162295 7.196014 7.229702 7.263361 7.296994 7.330601 7.364185 7.397749 7.431292 7.464817 7.498326 7.531819 7.565298 7.598764 7.632218 7.665661 7.699094 7.732518 7.765934 7.799341 7.832742 7.866136 7.899524 7.932907 7.966285 7.999659 8.033028 8.066394 8.099757 8.133117 8.166474 8.199828 8.233181 8.266531 8.299879 8.333226 8.366572 8.399916 8.433259 8.466601 8.499942 8.533282 8.566621 8.599960 8.633298 8.666636 8.699973 8.733309 8.766646 8.799982 8.833317 8.866652 8.899988 8.933322 8.966657 8.999992 9.033326 9.066660 9.099995 9.133329 9.166663 9.199996 9.233330 9.266664 9.299998 9.333331 9.366665 9.399998 9.433332 9.466665 9.499999 9.533332 9.566666 9.599999 9.633333 9.666666 9.700000 9.733333 9.766666 9.800000 9.833333 9.866666 9.900000 9.933333 9.966667 10.000000 10.033333 10.066667 10.100000 10.133333 10.166667 10.200000 10.233333 10.266667 10.300000 10.333333 10.366667 10.400000 10.433333 10.466667 10.500000 10.533333 10.566667 10.600000 10.633333 10.666667 10.700000 10.733333 10.766667 10.800000 10.833333 10.866667 10.900000 10.933333 10.966667 11.000000 11.033333 11.066667 11.100000 11.133333 11.166667 11.200000 11.233333 11.266667 11.300000 11.333333 11.366667 11.400000 11.433333 11.466667 11.500000 11.533333 11.566667 11.600000 11.633333 11.666667 11.700000 11.733333 11.766667 11.800000 11.833333 11.866667 11.900000 11.933333 11.966667 12.000000 12.033333 12.066667 12.100000 12.133333 12.166667 12.200000 12.233333 12.266667 12.300000 12.333333 12.366667 12.400000 12.433333 12.466667 12.500000 12.533333 12.566667 12.600000 12.633333 12.666667 12.700000 12.733333 12.766667 12.800000 12.833333 12.866667 12.900000 12.933333 12.966667 13.000000 13.000000 13.000000 13.000000 13.000000 13.000000 13.000000 13.000000 13.000000 13.000000 13.000000 13.000000 13.000000 13.000000 13.000000 13.000000 13.000000 13.000000 13.000000 13.000000 13.000000 13.000000 13.000000 13.000000 13.000000 13.000000 13.000000 13.000000 13.000000 13.000000 13.000000 13.000000 13.000000 13.000000 13.000000 13.000000 13.000000 13.000000 13.000000 13.000000 13.000000 13.000000 13.000000 13.000000 13.000000 13.000000 13.000000 13.000000 13.000000 13.000000 13.000000 13.000000 13.000000 13.000000 13.000000 13.000000 13.000000 13.000000 13.000000 13.000000 13.000000 13.000000 13.000000 13.000000 13.000000 13.000000 13.000000 13.000000 13.000000 13.000000 13.000000 13.000000 13.000000 13.000000 13.000000 13.000000 13.000000 13.000000 13.000000 13.000000 13.000000 13.000000 13.000000 13.000000 13.000000 13.000000 13.000000 13.000000
5.155882 5.199335 5.242455 5.285243 5.327700 5.369830 5.411634 5.453117 5.494283 5.535137 5.575683 5.615928 5.655877 5.695537 5.734914 5.774016 5.812850 5.851422 5.889741 5.927815 5.965650 6.003256 6.040639 6.077808 6.114771 6.151535 6.188109 6.224500 6.260715 6.296763 6.332651 6.368385 6.403973 6.439423 6.474740 6.509931 6.545003 6.579962 6.614814 6.649564 6.684219 6.718783 6.753262 6.787660 6.821983 6.856235 6.890420 6.924543 6.958607 6.992617 7.026575 7.060485 7.094350 7.128174 7.161959 7.195708 7.229423 7.263107 7.296762 7.330391 7.363995 7.397576 7.431135 7.464675 7.498197 7.531703 7.565193 7.598669 7.632133 7.665584 7.699025 7.732456 7.765877 7.799290 7.832696 7.866095 7.899487 7.932874 7.966256 7.999632 8.033005 8.066373 8.099738 8.133100 8.166459 8.199815 8.233169 8.266520 8.299870 8.333218 8.366564 8.399909 8.433253 8.466596 8.499937 8.533278 8.566618 8.599957 8.633295 8.666633 8.699971 8.733308 8.766644 8.799980 8.833316 8.866651 8.899987 8.933322 8.966656 8.999991 9.033326 9.066660 9.099994 9.133328 9.166662 9.199996 9.233330 9.266664 9.299997 9.333331 9.366665 9.399998 9.433332 9.466665 9.499999 9.533332 9.566666 9.599999 9.633333 9.666666 9.700000 9.733333 9.766666 9.800000 9.833333 9.866666 9.900000 9.933333 9.966667 10.000000 10.033333 10.066667 10.100000 10.133333 10.166667 10.200000 10.233333 10.266667 10.300000 10.333333 10.366667 10.400000 10.433333 10.466667 10.500000 10.533333 10.566667 10.600000 10.633333 10.666667 10.700000 10.733333 10.766667 10.800000 10.833333 10.866667 10.900000 10.933333 10.966667 11.000000 11.033333 11.066667 11.100000 11.133333 11.166667 11.200000 11.233333 11.266667 11.300000 11.333333 11.366667 11.400000 11.433333 11.466667 11.500000 11.533333 11.566667 11.600000 11.633333 11.666667 11.700000 11.733333 11.766667 11.800000 11.833333 11.866667 11.900000 11.933333 11.966667 12.000000 12.033333 12.066667 12.100000 12.133333 12.166667 12.200000 12.233333 12.266667 12.300000 12.333333 12.366667 12.400000 12.433333 12.466667 12.500000 12.533333 12.566667 12.600000 12.633333 12.666667 12.700000 12.733333 12.766667 12.800000 12.833333 12.866667 12.900000 12.933333 12.966667 13.000000 13.000000 13.000000 13.000000 13.000000 13.000000 13.000000 13.000000 13.000000 13.000000 13.000000 13.000000 13.000000 13.000000 13.000000 13.000000 13.000000 13.000000 13.000000 13.000000 13.000000 13.000000 13.000000 13.000000 13.000000 13.000000 13.000000 13.000000 13.000000 13.000000 13.000000 13.000000 13.000000 13.000000 13.000000 13.000000 13.000000 13.000000 13.000000 13.000000 13.000000 13.000000 13.000000 13.000000 13.000000 13.000000 13.000000 13.000000 13.000000 13.000000 13.000000 13.000000 13.000000 13.000000 13.000000 13.000000 13.000000 13.000000 13.000000 13.000000 13.000000 13.000000 13.000000 13.000000 13.000000 13.000000 13.000000 13.000000 13.000000 13.000000 13.000000 13.000000 13.000000 13.000000 13.000000 13.000000 13.000000 13.000000 13.000000 13.000000 13.000000 13.000000 13.000000 13.000000 13.000000 13.000000 13.000000 13.000000
5.140671 5.184855 5.228681 5.272151 5.315267 5.358031 5.400446 5.442518 5.484249 5.525645 5.566712 5.607455 5.647882 5.687998 5.727812 5.767330 5.806561 5.845511 5.884190 5.922606 5.960766 5.998680 6.036355 6.073801 6.111026 6.148038 6.184845 6.221457 6.257880 6.294124 6.330196 6.366103 6.401855 6.437457 6.472917 6.508242 6.543440 6.578516 6.613477 6.648330 6.683080 6.717733 6.752294 6.786770 6.821164 6.855482 6.889729 6.923909 6.958026 6.992084 7.026087 7.060039 7.093942 7.127802 7.161619 7.195398 7.229141 7.262850 7.296529 7.330179 7.363802 7.397400 7.430976 7.464532 7.498067 7.531585 7.565087 7.598573 7.632046 7.665506 7.698954 7.732392 7.765820 7.799239 7.832650 7.866054 7.899450 7.932841 7.966226 7.999606 8.032981 8.066352 8.099719 8.133083 8.166444 8.199802 8.233157 8.266510 8.299861 8.333210 8.366557 8.399903 8.433247 8.466591 8.499933 8.533274 8.566614 8.599954 8.633293 8.666631 8.699969 8.733306 8.766642 8.799979 8.833315 8.866650 8.899986 8.933321 8.966656 8.999990 9.033325 9.066659 9.099994 9.133328 9.166662 9.199996 9.233330 9.266663 9.299997 9.333331 9.366665 9.399998 9.433332 9.466665 9.499999 9.533332 9.566666 9.599999 9.633333 9.666666 9.700000 9.733333 9.766666 9.800000 9.833333 9.866666 9.900000 9.933333 9.966667 10.000000 10.033333 10.066667 10.100000 10.133333 10.166667 10.200000 10.233333 10.266667 10.300000 10.333333 10.366667 10.400000 10.433333 10.466667 10.500000 10.533333 10.566667 10.600000 10.633333 10.666667 10.700000 10.733333 10.766667 10.800000 10.833333 10.866667 10.900000 10.933333 10.966667 11.000000 11.033333 11.066667 11.100000 11.133333 11.166667 11.200000 11.233333 11.266667 11.300000 11.333333 11.366667 11.400000 11.433333 11.466667 11.500000 11.533333 11.566667 11.600000 11.633333 11.666667 11.700000 11.733333 11.766667 11.800000 11.833333 11.866667 11.900000 11.933333 11.966667 12.000000 12.033333 12.066667 12.100000 12.133333 12.166667 12.200000 12.233333 12.266667 12.300000 12.333333 12.366667 12.400000 12.433333 12.466667 12.500000 12.533333 12.566667 12.600000 12.633333 12.666667 12.700000 12.733333 12.766667 12.800000 12.833333 12.866667 12.900000 12.933333 12.966667 13.000000 13.000000 13.000000 13.000000 13.000000 13.000000 13.000000 13.000000 13.000000 13.000000 13.000000 13.000000 13.000000 13.000000 13.000000 13.000000 13.000000 13.000000 13.000000 13.000000 13.000000 13.000000 13.000000 13.000000 13.000000 13.000000 13.000000 13.000000 13.000000 13.000000 13.000000 13.000000 13.000000 13.000000 13.000000 13.000000 13.000000 13.000000 13.000000 13.000000 13.000000 13.000000 13.000000 13.000000 13.000000 13.000000 13.000000 13.000000 13.000000 13.000000 13.000000 13.000000 13.000000 13.000000 13.000000 13.000000 13.000000 13.000000 13.000000 13.000000 13.000000 13.000000 13.000000 13.000000 13.000000 13.000000 13.000000 13.000000 13.000000 13.000000 13.000000 13.000000 13.000000 13.000000 13.000000 13.000000 13.000000 13.000000 13.000000 13.000000 13.000000 13.000000 13.000000 13.000000 13.000000 13.000000 13.000000 13.000000
5.125531 5.170441 5.214970 5.259119 5.302890 5.346286 5.389310 5.431967 5.474261 5.516197 5.557782 5.599022 5.639924 5.680495 5.720742 5.760675 5.800301 5.839628 5.878665 5.917421 5.955904 5.994125 6.032092 6.069813 6.107298 6.144557 6.181597 6.218428 6.255059 6.291497 6.327752 6.363833 6.399746 6.435500 6.471102 6.506561 6.541884 6.577077 6.612147 6.647101 6.681946 6.716688 6.751331 6.785883 6.820349 6.854733 6.889041 6.923277 6.957447 6.991553 7.025601 7.059595 7.093537 7.127431 7.161281 7.195090 7.228860 7.262595 7.296296 7.329967 7.363610 7.397226 7.430819 7.464389 7.497938 7.531468 7.564981 7.598478 7.631960 7.665428 7.698884 7.732329 7.765763 7.799188 7.832604 7.866013 7.899414 7.932808 7.966196 7.999579 8.032958 8.066331 8.099701 8.133066 8.166429 8.199788 8.233145 8.266499 8.299851 8.333202 8.366550 8.399896 8.433242 8.466586 8.499928 8.533270 8.566611 8.599951 8.633290 8.666629 8.699966 8.733304 8.766641 8.799977 8.833313 8.866649 8.899985 8.933320 8.966655 8.999990 9.033324 9.066659 9.099993 9.133327 9.166662 9.199996 9.233329 9.266663 9.299997 9.333331 9.366664 9.399998 9.433332 9.466665 9.499999 9.533332 9.566666 9.599999 9.633333 9.666666 9.700000 9.733333 9.766666 9.800000 9.833333 9.866666 9.900000 9.933333 9.966667 10.000000 10.033333 10.066667 10.100000 10.133333 10.166667 10.200000 10.233333 10.266667 10.300000 10.333333 10.366667 10.400000 10.433333 10.466667 10.500000 10.533333 10.566667 10.600000 10.633333 10.666667 10.700000 10.733333 10.766667 10.800000 10.833333 10.866667 10.900000 10.933333 10.966667 11.000000 11.033333 11.066667 11.100000 11.133333 11.166667 11.200000 11.233333 11.266667 11.300000 11.333333 11.366667 11.400000 11.433333 11.466667 11.500000 11.533333 11.566667 11.600000 11.633333 11.666667 11.700000 11.733333 11.766667 11.800000 11.833333 11.866667 11.900000 11.933333 11.966667 12.000000 12.033333 12.066667 12.100000 12.133333 12.166667 12.200000 12.233333 12.266667 12.300000 12.333333 12.366667 12.400000 12.433333 12.466667 12.500000 12.533333 12.566667 12.600000 12.633333 12.666667 12.700000 12.733333 12.766667 12.800000 12.833333 12.866667 12.900000 12.933333 12.966667 13.000000 13.000000 13.000000 13.000000 13.000000 13.000000 13.000000 13.000000 13.000000 13.000000 13.000000 13.000000 13.000000 13.000000 13.000000 13.000000 13.000000 13.000000 13.000000 13.000000 13.000000 13.000000 13.000000 13.000000 13.000000 13.000000 13.000000 13.000000 13.000000 13.000000 13.000000 13.000000 13.000000 13.000000 13.000000 13.000000 13.000000 13.000000 13.000000 13.000000 13.000000 13.000000 13.000000 13.000000 13.000000 13.000000 13.000000 13.000000 13.000000 13.000000 13.000000 13.000000 13.000000 13.000000 13.000000 13.000000 13.000000 13.000000 13.000000 13.000000 13.000000 13.000000 13.000000 13.000000 13.000000 13.000000 13.000000 13.000000 13.000000 13.000000 13.000000 13.000000 13.000000 13.000000 13.000000 13.000000 13.000000 13.000000 13.000000 13.000000 13.000000 13.000000 13.000000 13.000000 13.000000 13.000000 13.000000 13.000000
5.110701 5.156323 5.201540 5.246355 5.290768 5.334783 5.378403 5.421633 5.464478 5.506943 5.549036 5.590762 5.632129 5.673145 5.713818 5.754156 5.794169 5.833865 5.873252 5.912342 5.951142 5.989664 6.027915 6.065906 6.103647 6.141147 6.178415 6.215461 6.252295 6.288924 6.325359 6.361608 6.397680 6.433583 6.469325 6.504915 6.540359 6.575667 6.610844 6.645898 6.680836 6.715664 6.750388 6.785015 6.819550 6.853999 6.888367 6.922659 6.956880 6.991034 7.025126 7.059160 7.093139 7.127068 7.160950 7.194788 7.228585 7.262344 7.296068 7.329760 7.363422 7.397056 7.430664 7.464248 7.497811 7.531353 7.564877 7.598384 7.631875 7.665352 7.698816 7.732267 7.765708 7.799138 7.832560 7.865972 7.899378 7.932776 7.966168 7.999554 8.032934 8.066310 8.099682 8.133050 8.166414 8.199775 8.233133 8.266489 8.299842 8.333193 8.366543 8.399890 8.433236 8.466581 8.499924 8.533266 8.566607 8.599948 8.633287 8.666626 8.699964 8.733302 8.766639 8.799976 8.833312 8.866648 8.899984 8.933319 8.966654 8.999989 9.033324 9.066658 9.099993 9.133327 9.166661 9.199995 9.233329 9.266663 9.299997 9.333331 9.366664 9.399998 9.433332 9.466665 9.499999 9.533332 9.566666 9.599999 9.633333 9.666666 9.699999 9.733333 9.766666 9.800000 9.833333 9.866666 9.900000 9.933333 9.966667 10.000000 10.033333 10.066667 10.100000 10.133333 10.166667 10.200000 10.233333 10.266667 10.300000 10.333333 10.366667 10.400000 10.433333 10.466667 10.500000 10.533333 10.566667 10.600000 10.633333 10.666667 10.700000 10.733333 10.766667 10.800000 10.833333 10.866667 10.900000 10.933333 10.966667 11.000000 11.033333 11.066667 11.100000 11.133333 11.166667 11.200000 11.233333 11.266667 11.300000 11.333333 11.366667 11.400000 11.433333 11.466667 11.500000 11.533333 11.566667 11.600000 11.633333 11.666667 11.700000 11.733333 11.766667 11.800000 11.833333 11.866667 11.900000 11.933333 11.966667 12.000000 12.033333 12.066667 12.100000 12.133333 12.166667 12.200000 12.233333 12.266667 12.300000 12.333333 12.366667 12.400000 12.433333 12.466667 12.500000 12.533333 12.566667 12.600000 12.633333 12.666667 12.700000 12.733333 12.766667 12.800000 12.833333 12.866667 12.900000 12.933333 12.966667 13.000000 13.000000 13.000000 13.000000 13.000000 13.000000 13.000000 13.000000 13.000000 13.000000 13.000000 13.000000 13.000000 13.000000 13.000000 13.000000 13.000000 13.000000 13.000000 13.000000 13.000000 13.000000 13.000000 13.000000 13.000000 13.000000 13.000000 13.000000 13.000000 13.000000 13.000000 13.000000 13.000000 13.000000 13.000000 13.000000 13.000000 13.000000 13.000000 13.000000 13.000000 13.000000 13.000000 13.000000 13.000000 13.000000 13.000000 13.000000 13.000000 13.000000 13.000000 13.000000 13.000000 13.000000 13.000000 13.000000 13.000000 13.000000 13.000000 13.000000 13.000000 13.000000 13.000000 13.000000 13.000000 13.000000 13.000000 13.000000 13.000000 13.000000 13.000000 13.000000 13.000000 13.000000 13.000000 13.000000 13.000000 13.000000 13.000000 13.000000 13.000000 13.000000 13.000000 13.000000 13.000000 13.000000 13.000000 13.000000
5.096423 5.142731 5.188611 5.234066 5.279097 5.323708 5.367902 5.411684 5.455059 5.498034 5.540615 5.582809 5.624625 5.666069 5.707152 5.747881 5.788266 5.828316 5.868042 5.907452 5.946558 5.985369 6.023894 6.062145 6.100132 6.137864 6.175352 6.212605 6.249634 6.286447 6.323055 6.359467 6.395691 6.431738 6.467614 6.503330 6.538892 6.574309 6.609590 6.644740 6.679767 6.714678 6.749480 6.784179 6.818781 6.853293 6.887718 6.922064 6.956334 6.990534 7.024668 7.058741 7.092756 7.126718 7.160631 7.194497 7.228320 7.262103 7.295849 7.329561 7.363241 7.396892 7.430515 7.464114 7.497689 7.531243 7.564778 7.598294 7.631794 7.665279 7.698750 7.732208 7.765654 7.799090 7.832517 7.865934 7.899343 7.932745 7.966140 7.999529 8.032912 8.066291 8.099664 8.133034 8.166400 8.199763 8.233122 8.266479 8.299833 8.333186 8.366536 8.399884 8.433231 8.466576 8.499920 8.533262 8.566604 8.599945 8.633285 8.666624 8.699962 8.733300 8.766638 8.799975 8.833311 8.866647 8.899983 8.933318 8.966654 8.999989 9.033323 9.066658 9.099992 9.133327 9.166661 9.199995 9.233329 9.266663 9.299997 9.333330 9.366664 9.399998 9.433331 9.466665 9.499999 9.533332 9.566666 9.599999 9.633333 9.666666 9.699999 9.733333 9.766666 9.800000 9.833333 9.866666 9.900000 9.933333 9.966667 10.000000 10.033333 10.066667 10.100000 10.133333 10.166667 10.200000 10.233333 10.266667 10.300000 10.333333 10.366667 10.400000 10.433333 10.466667 10.500000 10.533333 10.566667 10.600000 10.633333 10.666667 10.700000 10.733333 10.766667 10.800000 10.833333 10.866667 10.900000 10.933333 10.966667 11.000000 11.033333 11.066667 11.100000 11.133333 11.166667 11.200000 11.233333 11.266667 11.300000 11.333333 11.366667 11.400000 11.433333 11.466667 11.500000 11.533333 11.566667 11.600000 11.633333 11.666667 11.700000 11.733333 11.766667 11.800000 11.833333 11.866667 11.900000 11.933333 11.966667 12.000000 12.033333 12.066667 12.100000 12.133333 12.166667 12.200000 12.233333 12.266667 12.300000 12.333333 12.366667 12.400000 12.433333 12.466667 12.500000 12.533333 12.566667 12.600000 12.633333 12.666667 12.700000 12.733333 12.766667 12.800000 12.833333 12.866667 12.900000 12.933333 12.966667 13.000000 13.000000 13.000000 13.000000 13.000000 13.000000 13.000000 13.000000 13.000000 13.000000 13.000000 13.000000 13.000000 13.000000 13.000000 13.000000 13.000000 13.000000 13.000000 13.000000 13.000000 13.000000 13.000000 13.000000 13.000000 13.000000 13.000000 13.000000 13.000000 13.000000 13.000000 13.000000 13.000000 13.000000 13.000000 13.000000 13.000000 13.000000 13.000000 13.000000 13.000000 13.000000 13.000000 13.000000 13.000000 13.000000 13.000000 13.000000 13.000000 13.000000 13.000000 13.000000 13.000000 13.000000 13.000000 13.000000 13.000000 13.000000 13.000000 13.000000 13.000000 13.000000 13.000000 13.000000 13.000000 13.000000 13.000000 13.000000 13.000000 13.000000 13.000000 13.000000 13.000000 13.000000 13.000000 13.000000 13.000000 13.000000 13.000000 13.000000 13.000000 13.000000 13.000000 13.000000 13.000000 13.000000 13.000000 13.000000
5.082952 5.129906 5.176412 5.222471 5.268085 5.313258 5.357993 5.402296 5.446172 5.489628 5.532670 5.575306 5.617544 5.659393 5.700861 5.741959 5.782696 5.823081 5.863125 5.902839 5.942232 5.981316 6.020101 6.058597 6.096815 6.134767 6.172462 6.209910 6.247123 6.284110 6.320881 6.357446 6.393815 6.429996 6.466000 6.501834 6.537507 6.573029 6.608406 6.643646 6.678758 6.713748 6.748623 6.783391 6.818056 6.852626 6.887106 6.921502 6.955819 6.990062 7.024236 7.058346 7.092395 7.126389 7.160330 7.194223 7.228070 7.261876 7.295642 7.329373 7.363070 7.396737 7.430375 7.463986 7.497574 7.531139 7.564683 7.598209 7.631717 7.665210 7.698687 7.732152 7.765604 7.799045 7.832476 7.865897 7.899310 7.932715 7.966113 7.999505 8.032891 8.066272 8.099648 8.133019 8.166387 8.199751 8.233112 8.266470 8.299825 8.333178 8.366529 8.399878 8.433225 8.466571 8.499916 8.533259 8.566601 8.599942 8.633282 8.666622 8.699961 8.733299 8.766636 8.799973 8.833310 8.866646 8.899982 8.933318 8.966653 8.999988 9.033323 9.066658 9.099992 9.133326 9.166661 9.199995 9.233329 9.266663 9.299997 9.333330 9.366664 9.399998 9.433331 9.466665 9.499999 9.533332 9.566666 9.599999 9.633333 9.666666 9.699999 9.733333 9.766666 9.800000 9.833333 9.866666 9.900000 9.933333 9.966667 10.000000 10.033333 10.066667 10.100000 10.133333 10.166667 10.200000 10.233333 10.266667 10.300000 10.333333 10.366667 10.400000 10.433333 10.466667 10.500000 10.533333 10.566667 10.600000 10.633333 10.666667 10.700000 10.733333 10.766667 10.800000 10.833333 10.866667 10.900000 10.933333 10.966667 11.000000 11.033333 11.066667 11.100000 11.133333 11.166667 11.200000 11.233333 11.266667 11.300000 11.333333 11.366667 11.400000 11.433333 11.466667 11.500000 11.533333 11.566667 11.600000 11.633333 11.666667 11.700000 11.733333 11.766667 11.800000 11.833333 11.866667 11.900000 11.933333 11.966667 12.000000 12.033333 12.066667 12.100000 12.133333 12.166667 12.200000 12.233333 12.266667 12.300000 12.333333 12.366667 12.400000 12.433333 12.466667 12.500000 12.533333 12.566667 12.600000 12.633333 12.666667 12.700000 12.733333 12.766667 12.800000 12.833333 12.866667 12.900000 12.933333 12.966667 13.000000 13.000000 13.000000 13.000000 13.000000 13.000000 13.000000 13.000000 13.000000 13.000000 13.000000 13.000000 13.000000 13.000000 13.000000 13.000000 13.000000 13.000000 13.000000 13.000000 13.000000 13.000000 13.000000 13.000000 13.000000 13.000000 13.000000 13.000000 13.000000 13.000000 13.000000 13.000000 13.000000 13.000000 13.000000 13.000000 13.000000 13.000000 13.000000 13.000000 13.000000 13.000000 13.000000 13.000000 13.000000 13.000000 13.000000 13.000000 13.000000 13.000000 13.000000 13.000000 13.000000 13.000000 13.000000 13.000000 13.000000 13.000000 13.000000 13.000000 13.000000 13.000000 13.000000 13.000000 13.000000 13.000000 13.000000 13.000000 13.000000 13.000000 13.000000 13.000000 13.000000 13.000000 13.000000 13.000000 13.000000 13.000000 13.000000 13.000000 13.000000 13.000000 13.000000 13.000000 13.000000 13.000000 13.000000 13.000000
5.070527 5.118078 5.165161 5.211777 5.257929 5.303620 5.348855 5.393638 5.437976 5.481875 5.525342 5.568385 5.611013 5.653235 5.695060 5.736498 5.777559 5.818253 5.858591 5.898584 5.938243 5.977578 6.016602 6.055324 6.093756 6.131910 6.169796 6.207425 6.244807 6.281954 6.318876 6.355583 6.392084 6.428390 6.464511 6.500455 6.536231 6.571848 6.607314 6.642638 6.677828 6.712891 6.747833 6.782663 6.817387 6.852011 6.886541 6.920984 6.955344 6.989627 7.023838 7.057981 7.092062 7.126085 7.160052 7.193970 7.227840 7.261666 7.295451 7.329199 7.362913 7.396594 7.430245 7.463869 7.497467 7.531043 7.564597 7.598131 7.631647 7.665146 7.698630 7.732100 7.765557 7.799003 7.832438 7.865864 7.899280 7.932688 7.966089 7.999484 8.032872 8.066255 8.099632 8.133005 8.166375 8.199740 8.233102 8.266461 8.299818 8.333171 8.366523 8.399873 8.433221 8.466567 8.499912 8.533256 8.566598 8.599940 8.633280 8.666620 8.699959 8.733297 8.766635 8.799972 8.833309 8.866645 8.899981 8.933317 8.966652 8.999988 9.033322 9.066657 9.099992 9.133326 9.166660 9.199995 9.233329 9.266663 9.299996 9.333330 9.366664 9.399998 9.433331 9.466665 9.499999 9.533332 9.566666 9.599999 9.633332 9.666666 9.699999 9.733333 9.766666 9.800000 9.833333 9.866666 9.900000 9.933333 9.966667 10.000000 10.033333 10.066667 10.100000 10.133333 10.166667 10.200000 10.233333 10.266667 10.300000 10.333333 10.366667 10.400000 10.433333 10.466667 10.500000 10.533333 10.566667 10.600000 10.633333 10.666667 10.700000 10.733333 10.766667 10.800000 10.833333 10.866667 10.900000 10.933333 10.966667 11.000000 11.033333 11.066667 11.100000 11.133333 11.166667 11.200000 11.233333 11.266667 11.300000 11.333333 11.366667 11.400000 11.433333 11.466667 11.500000 11.533333 11.566667 11.600000 11.633333 11.666667 11.700000 11.733333 11.766667 11.800000 11.833333 11.866667 11.900000 11.933333 11.966667 12.000000 12.033333 12.066667 12.100000 12.133333 12.166667 12.200000 12.233333 12.266667 12.300000 12.333333 12.366667 12.400000 12.433333 12.466667 12.500000 12.533333 12.566667 12.600000 12.633333 12.666667 12.700000 12.733333 12.766667 12.800000 12.833333 12.866667 12.900000 12.933333 12.966667 13.000000 13.000000 13.000000 13.000000 13.000000 13.000000 13.000000 13.000000 13.000000 13.000000 13.000000 13.000000 13.000000 13.000000 13.000000 13.000000 13.000000 13.000000 13.000000 13.000000 13.000000 13.000000 13.000000 13.000000 13.000000 13.000000 13.000000 13.000000 13.000000 13.000000 13.000000 13.000000 13.000000 13.000000 13.000000 13.000000 13.000000 13.000000 13.000000 13.000000 13.000000 13.000000 13.000000 13.000000 13.000000 13.000000 13.000000 13.000000 13.000000 13.000000 13.000000 13.000000 13.000000 13.000000 13.000000 13.000000 13.000000 13.000000 13.000000 13.000000 13.000000 13.000000 13.000000 13.000000 13.000000 13.000000 13.000000 13.000000 13.000000 13.000000 13.000000 13.000000 13.000000 13.000000 13.000000 13.000000 13.000000 13.000000 13.000000 13.000000 13.000000 13.000000 13.000000 13.000000 13.000000 13.000000 13.000000 13.000000
5.059359 5.107446 5.155048 5.202165 5.248800 5.294958 5.340641 5.385856 5.430609 5.474906 5.518755 5.562165 5.605144 5.647701 5.689846 5.731589 5.772941 5.813913 5.854515 5.894760 5.934657 5.974218 6.013456 6.052382 6.091007 6.129342 6.167400 6.205191 6.242726 6.280017 6.317074 6.353908 6.390529 6.426947 6.463172 6.499215 6.535083 6.570786 6.606333 6.641732 6.676992 6.712120 6.747123 6.782009 6.816786 6.851458 6.886034 6.920518 6.954917 6.989236 7.023480 7.057654 7.091763 7.125811 7.159803 7.193742 7.227632 7.261477 7.295280 7.329043 7.362771 7.396465 7.430129 7.463763 7.497372 7.530956 7.564518 7.598060 7.631583 7.665089 7.698578 7.732054 7.765516 7.798966 7.832404 7.865833 7.899253 7.932664 7.966068 7.999464 8.032854 8.066239 8.099618 8.132993 8.166364 8.199730 8.233093 8.266453 8.299811 8.333165 8.366518 8.399868 8.433217 8.466563 8.499909 8.533253 8.566596 8.599937 8.633278 8.666618 8.699957 8.733296 8.766634 8.799971 8.833308 8.866644 8.899981 8.933316 8.966652 8.999987 9.033322 9.066657 9.099991 9.133326 9.166660 9.199994 9.233328 9.266662 9.299996 9.333330 9.366664 9.399998 9.433331 9.466665 9.499999 9.533332 9.566666 9.599999 9.633332 9.666666 9.699999 9.733333 9.766666 9.800000 9.833333 9.866666 9.900000 9.933333 9.966667 10.000000 10.033333 10.066667 10.100000 10.133333 10.166667 10.200000 10.233333 10.266667 10.300000 10.333333 10.366667 10.400000 10.433333 10.466667 10.500000 10.533333 10.566667 10.600000 10.633333 10.666667 10.700000 10.733333 10.766667 10.800000 10.833333 10.866667 10.900000 10.933333 10.966667 11.000000 11.033333 11.066667 11.100000 11.133333 11.166667 11.200000 11.233333 11.266667 11.300000 11.333333 11.366667 11.400000 11.433333 11.466667 11.500000 11.533333 11.566667 11.600000 11.633333 11.666667 11.700000 11.733333 11.766667 11.800000 11.833333 11.866667 11.900000 11.933333 11.966667 12.000000 12.033333 12.066667 12.100000 12.133333 12.166667 12.200000 12.233333 12.266667 12.300000 12.333333 12.366667 12.400000 12.433333 12.466667 12.500000 12.533333 12.566667 12.600000 12.633333 12.666667 12.700000 12.733333 12.766667 12.800000 12.833333 12.866667 12.900000 12.933333 12.966667 13.000000 13.000000 13.000000 13.000000 13.000000 13.000000 13.000000 13.000000 13.000000 13.000000 13.000000 13.000000 13.000000 13.000000 13.000000 13.000000 13.000000 13.000000 13.000000 13.000000 13.000000 13.000000 13.000000 13.000000 13.000000 13.000000 13.000000 13.000000 13.000000 13.000000 13.000000 13.000000 13.000000 13.000000 13.000000 13.000000 13.000000 13.000000 13.000000 13.000000 13.000000 13.000000 13.000000 13.000000 13.000000 13.000000 13.000000 13.000000 13.000000 13.000000 13.000000 13.000000 13.000000 13.000000 13.000000 13.000000 13.000000 13.000000 13.000000 13.000000 13.000000 13.000000 13.000000 13.000000 13.000000 13.000000 13.000000 13.000000 13.000000 13.000000 13.000000 13.000000 13.000000 13.000000 13.000000 13.000000 13.000000 13.000000 13.000000 13.000000 13.000000 13.000000 13.000000 13.000000 13.000000 13.000000 13.000000 13.000000
5.049649 5.098202 5.146254 5.193807 5.240863 5.287425 5.333499 5.379089 5.424203 5.468846 5.513028 5.556756 5.600040 5.642888 5.685312 5.727321 5.768926 5.810140 5.850971 5.891434 5.931539 5.971297 6.010722 6.049824 6.088616 6.127109 6.165316 6.203248 6.240916 6.278332 6.315507 6.352451 6.389176 6.425692 6.462009 6.498136 6.534085 6.569863 6.605480 6.640944 6.676265 6.711449 6.746506 6.781441 6.816263 6.850978 6.885592 6.920113 6.954545 6.988895 7.023168 7.057369 7.091503 7.125574 7.159586 7.193544 7.227452 7.261313 7.295131 7.328908 7.362648 7.396354 7.430027 7.463672 7.497289 7.530881 7.564451 7.597999 7.631528 7.665039 7.698533 7.732013 7.765479 7.798933 7.832375 7.865807 7.899229 7.932643 7.966048 7.999447 8.032839 8.066225 8.099606 8.132982 8.166354 8.199722 8.233086 8.266447 8.299805 8.333160 8.366513 8.399864 8.433213 8.466560 8.499906 8.533250 8.566593 8.599935 8.633276 8.666617 8.699956 8.733295 8.766633 8.799970 8.833307 8.866644 8.899980 8.933316 8.966651 8.999987 9.033322 9.066656 9.099991 9.133326 9.166660 9.199994 9.233328 9.266662 9.299996 9.333330 9.366664 9.399998 9.433331 9.466665 9.499998 9.533332 9.566665 9.599999 9.633332 9.666666 9.699999 9.733333 9.766666 9.800000 9.833333 9.866666 9.900000 9.933333 9.966667 10.000000 10.033333 10.066667 10.100000 10.133333 10.166667 10.200000 10.233333 10.266667 10.300000 10.333333 10.366667 10.400000 10.433333 10.466667 10.500000 10.533333 10.566667 10.600000 10.633333 10.666667 10.700000 10.733333 10.766667 10.800000 10.833333 10.866667 10.900000 10.933333 10.966667 11.000000 11.033333 11.066667 11.100000 11.133333 11.166667 11.200000 11.233333 11.266667 11.300000 11.333333 11.366667 11.400000 11.433333 11.466667 11.500000 11.533333 11.566667 11.600000 11.633333 11.666667 11.700000 11.733333 11.766667 11.800000 11.833333 11.866667 11.900000 11.933333 11.966667 12.000000 12.033333 12.066667 12.100000 12.133333 12.166667 12.200000 12.233333 12.266667 12.300000 12.333333 12.366667 12.400000 12.433333 12.466667 12.500000 12.533333 12.566667 12.600000 12.633333 12.666667 12.700000 12.733333 12.766667 12.800000 12.833333 12.866667 12.900000 12.933333 12.966667 13.000000 13.000000 13.000000 13.000000 13.000000 13.000000 13.000000 13.000000 13.000000 13.000000 13.000000 13.000000 13.000000 13.000000 13.000000 13.000000 13.000000 13.000000 13.000000 13.000000 13.000000 13.000000 13.000000 13.000000 13.000000 13.000000 13.000000 13.000000 13.000000 13.000000 13.000000 13.000000 13.000000 13.000000 13.000000 13.000000 13.000000 13.000000 13.000000 13.000000 13.000000 13.000000 13.000000 13.000000 13.000000 13.000000 13.000000 13.000000 13.000000 13.000000 13.000000 13.000000 13.000000 13.000000 13.000000 13.000000 13.000000 13.000000 13.000000 13.000000 13.000000 13.000000 13.000000 13.000000 13.000000 13.000000 13.000000 13.000000 13.000000 13.000000 13.000000 13.000000 13.000000 13.000000 13.000000 13.000000 13.000000 13.000000 13.000000 13.000000 13.000000 13.000000 13.000000 13.000000 13.000000 13.000000 13.000000 13.000000
